# .PCD v0.7 - Point Cloud Data file format
VERSION 0.7
FIELDS x y z
SIZE 4 4 4
TYPE F F F
COUNT 1 1 1
WIDTH 1326
HEIGHT 1
VIEWPOINT 0 0 0 1 0 0 0
POINTS 1326
DATA ascii
-0.099999994 -0.16315827 0.023810074
0.099999994 -0.16351774 0.0236488
-0.099999994 -0.16189297 0.023409577
-0.099999994 -0.15788659 0.023857687
-0.099999994 -0.15552428 0.023157736
-0.099999994 -0.15318699 0.023328526
0.099999994 -0.15097629 0.023559213
0.099999994 -0.14676046 0.023499981
-0.099999994 -0.14331469 0.023961857
0.099999994 -0.14337744 0.023123203
0.099999994 -0.12988648 0.023805818
-0.099999994 -0.12357839 0.023065267
-0.099999994 -0.12169366 0.023644075
-0.099999994 -0.12073813 0.023847446
-0.099999994 -0.11948664 0.023039715
-0.099999994 -0.1188513 0.02374251
0.099999994 -0.1164857 0.02325476
-0.099999994 -0.11591209 0.023851862
0.099999994 -0.11380959 0.023425715
-0.099999994 -0.11219156 0.023421224
0.099999994 -0.11283355 0.023991272
0.099999994 -0.11137845 0.023773527
-0.099999994 -0.095807321 0.02337556
0.099999994 -0.094951957 0.02389597
-0.099999994 -0.091104239 0.023320433
0.099999994 -0.086102106 0.023334134
0.099999994 -0.082548797 0.023199476
0.099999994 -0.078874409 0.023004653
0.099999987 -0.061802797 0.02313417
-0.099999994 -0.060648043 0.02315261
0.099999994 -0.059391662 0.023505894
-0.099999994 -0.058153611 0.023010327
0.099999994 -0.058199983 0.023049822
-0.099999994 -0.055539563 0.023039654
-0.099999994 -0.051521927 0.023263916
-0.099999994 -0.046330418 0.023764729
-0.099999994 -0.045652214 0.023349045
0.099999994 -0.043315869 0.023395043
0.1 -0.040548563 0.023460258
-0.099999994 -0.038175758 0.023414746
0.099999994 -0.034576878 0.023878828
0.099999994 -0.027048562 0.023440275
-0.099999994 -0.010243926 0.023030128
0.099999994 0.0019626929 0.023716802
-0.099999994 0.0079834862 0.023343001
-0.099999994 0.013348259 0.023136619
-0.099999994 0.01781692 0.023863792
0.099999994 0.025720445 0.023673769
-0.099999994 0.03432022 0.023662841
0.099999994 0.038892254 0.023714466
-0.099999994 0.040012613 0.023806902
-0.1 0.041604582 0.023264505
0.099999994 0.046742942 0.023345666
0.099999994 0.047597803 0.023616195
-0.099999994 0.048091259 0.023777612
-0.099999994 0.051875893 0.023908544
0.099999994 0.05100007 0.023532197
-0.099999994 0.056112684 0.023115791
0.099999994 0.059663985 0.023426795
-0.099999994 0.064866461 0.023124108
-0.099999994 0.078886941 0.023191042
-0.099999994 0.082309514 0.023344567
-0.099999994 0.083792977 0.023907285
-0.099999994 0.091642387 0.023319669
-0.099999994 0.095654204 0.023146773
0.099999994 0.095450789 0.023521239
0.099999994 0.096385337 0.023680834
0.099999994 0.09899082 0.023859685
0.099999994 0.10464258 0.023442261
-0.099999994 0.10879042 0.02399765
0.099999994 0.11216521 0.02368238
0.099999994 0.11560669 0.023494842
-0.099999994 0.12097289 0.023893911
-0.099999994 0.12927046 0.02321388
-0.099999994 0.13386542 0.023967583
0.099999994 0.14159763 0.023403775
-0.099999994 0.14238718 0.023063639
-0.099999994 0.14309634 0.023009401
0.099999994 0.1438002 0.023429338
0.099999994 0.14421779 0.023808779
-0.099999994 0.14610246 0.023883646
-0.099999994 0.15324397 0.023336349
0.099999994 0.15322486 0.023337331
0.099999994 0.15785912 0.023409167
0.099999994 0.16046458 0.023288239
0.099999994 0.16552511 0.023065886
-0.099999994 0.16688083 0.023404974
-0.099999994 0.16744487 0.023636166
-0.099999994 0.17192648 0.023662718
0.099999994 0.17366248 0.023475621
-0.099999994 0.17988285 0.023337077
-0.099999994 0.18191378 0.023896366
-0.099999994 0.18561587 0.023679059
0.099999994 0.18588018 0.023822621
-0.099999994 0.18741676 0.023881018
0.099999994 0.19162643 0.023457732
0.099999994 0.19298851 0.023861045
-0.099999994 0.19675849 0.02351021
-0.096616931 0.19999999 0.023378728
-0.09195479 0.19999999 0.023390464
-0.084980287 0.19999999 0.023794793
-0.083530374 0.19999999 0.023205793
-0.06828896 0.19999999 0.023563767
-0.060414832 0.19999999 0.023129189
-0.048658367 0.19999999 0.023319975
-0.02830283 0.19999999 0.023052534
-0.02220911 0.19999999 0.023789298
-0.020713203 0.19999999 0.023285616
-0.00023836615 0.19999999 0.023471778
0.0013903505 0.19999997 0.023291787
0.0027063163 0.19999999 0.023797743
0.0083088344 0.19999999 0.023662647
0.013216889 0.19999999 0.023066789
0.027811637 0.19999999 0.023222299
0.029712152 0.19999999 0.023189444
0.037448883 0.19999999 0.023934186
0.048219517 0.19999999 0.023509622
0.068506323 0.19999999 0.023595894
0.072692454 0.19999999 0.023379605
0.07425718 0.19999999 0.023347583
0.083822817 0.19999999 0.02374531
0.088812746 0.19999999 0.023838174
0.095572561 0.19999999 0.023444042
-0.072051518 -0.19999999 0.024353804
-0.056618966 -0.19999999 0.024419092
-0.045981914 -0.19999999 0.024355603
-0.043336835 -0.19999999 0.024026109
-0.018124508 -0.19999999 0.024890091
-0.014981087 -0.19999999 0.024471486
0.015676087 -0.19999999 0.024867399
0.025500311 -0.19999999 0.024257371
0.045207627 -0.19999999 0.024870776
0.059521623 -0.19999999 0.024603304
0.062588409 -0.19999999 0.024702979
0.06316226 -0.19999999 0.024175618
0.067091562 -0.19999999 0.024908761
0.080210753 -0.19999999 0.024414945
0.081282876 -0.19999999 0.024537798
0.090144813 -0.19999999 0.024371317
0.094737232 -0.19999999 0.024699662
0.099511474 -0.19859767 0.024571892
0.099999994 -0.19670065 0.024515845
-0.099999994 -0.1952261 0.024591515
0.099999994 -0.19476429 0.02474945
-0.099999994 -0.19111215 0.02485827
-0.099999994 -0.18080688 0.02480654
0.099999994 -0.1803477 0.024443626
-0.099999994 -0.17357045 0.024769761
0.099999994 -0.17107774 0.024371577
0.099999994 -0.17058855 0.024460971
0.099999994 -0.16541255 0.024795797
0.099999994 -0.16443203 0.024749963
-0.099999994 -0.16344768 0.024291692
-0.099999994 -0.16088483 0.024843208
-0.099999994 -0.15611894 0.024746008
0.099999994 -0.15063934 0.024283392
-0.099999994 -0.14855155 0.024587143
0.099999994 -0.14866208 0.024317309
0.099999994 -0.13667946 0.024884576
-0.099999994 -0.13243902 0.024987256
0.099999994 -0.12637296 0.02488908
0.099999994 -0.12106694 0.024767673
0.099999994 -0.11839403 0.024118913
-0.099999994 -0.10941055 0.024380095
0.099999994 -0.1083258 0.024935506
-0.099999994 -0.10635545 0.024518112
0.099999994 -0.098331854 0.024820523
0.099999994 -0.097149283 0.02468705
0.099999994 -0.095908932 0.024348909
-0.099999994 -0.084524393 0.024404678
-0.099999994 -0.078538574 0.024135442
0.099999994 -0.075436465 0.024145797
0.099999994 -0.074134879 0.024751563
-0.099999994 -0.071624435 0.024087781
0.1 -0.068888023 0.024020912
-0.099999994 -0.067162745 0.024674607
0.099999994 -0.067995563 0.024473647
-0.099999994 -0.066644646 0.024614053
-0.099999994 -0.062805705 0.024675533
-0.099999994 -0.06008463 0.024044165
-0.099999994 -0.057757825 0.024236813
-0.099999994 -0.050548442 0.024480689
-0.099999994 -0.043138377 0.024388572
-0.099999994 -0.03456207 0.024498357
0.099999994 -0.030557515 0.024981666
0.099999994 -0.02829702 0.024760518
-0.099999994 -0.02311494 0.024555188
0.099999994 -0.023253892 0.024534278
0.099999994 -0.021208664 0.024617378
0.099999994 -0.020287 0.024368778
-0.099999994 -0.018381465 0.024151113
-0.099999994 -0.015819535 0.02429067
-0.099999994 -0.014721113 0.024375137
-0.099999994 -0.013692868 0.024941396
0.099999994 -0.0093994709 0.024058856
0.099999994 -0.0082818102 0.0243304
0.099999994 -0.0056735296 0.024330374
0.099999994 -0.0036050659 0.02411852
-0.099999994 0.0015909929 0.02474232
0.099999994 0.0054955464 0.024453094
-0.099999994 0.0073410347 0.024342896
-0.099999987 0.0087099783 0.024786528
-0.099999994 0.014559818 0.024388794
-0.099999994 0.016450683 0.024570424
-0.099999994 0.018277533 0.024173345
-0.099999994 0.019406589 0.024209583
-0.099999994 0.021535464 0.024790796
0.099999994 0.022000758 0.024689861
0.099999994 0.027047936 0.024677081
-0.099999994 0.029379304 0.024115406
0.099999994 0.040956259 0.024019409
-0.099999994 0.044778891 0.024253407
-0.099999994 0.049369887 0.024119649
0.099999994 0.050070703 0.024714705
-0.099999994 0.052138612 0.02484997
-0.099999994 0.054046717 0.024584046
-0.099999994 0.055584125 0.024498789
-0.099999994 0.064115122 0.024900693
0.099999994 0.069655329 0.024331229
-0.099999994 0.078101464 0.02481989
-0.099999994 0.082154222 0.024725627
-0.099999994 0.087672055 0.024849599
-0.099999994 0.092770919 0.024856966
-0.099999994 0.093328357 0.024780605
0.099999994 0.094831765 0.024434904
-0.099999994 0.095110513 0.024408512
-0.099999994 0.0991541 0.024718335
0.099999994 0.10138854 0.024502261
-0.099999994 0.11105481 0.024622368
-0.099999994 0.11485832 0.024024189
0.099999994 0.11630961 0.024576472
0.099999994 0.11986712 0.024076197
0.099999994 0.12171582 0.024173219
0.099999994 0.12258959 0.024742287
-0.099999994 0.12657461 0.024330324
-0.099999994 0.12779589 0.024594953
0.099999994 0.13255212 0.024374982
-0.099999994 0.13740122 0.024631808
-0.099999994 0.14842989 0.024520172
-0.099999994 0.15133883 0.024276715
-0.099999994 0.15284206 0.024797063
0.099999994 0.15278506 0.024308722
-0.099999994 0.15459162 0.024475913
-0.099999994 0.16700973 0.02406045
0.099999994 0.16955534 0.024042811
-0.099999994 0.17409581 0.024044758
0.099999994 0.17608377 0.024684856
-0.099999994 0.17995164 0.024123659
0.099999994 0.18247941 0.024967715
-0.099999994 0.18551631 0.024212308
0.099999994 0.18828875 0.024698045
0.099999994 0.19407603 0.024363413
-0.099999994 0.19675559 0.024112012
0.099999994 0.19648594 0.024535427
-0.095644228 0.19999999 0.024237137
-0.09308029 0.19999999 0.024251264
-0.061591275 0.19999999 0.024308933
-0.05337555 0.19999999 0.024813658
-0.046226446 0.19999999 0.024441255
-0.036469519 0.19999999 0.024362002
-0.023637282 0.19999999 0.024122816
-0.015785409 0.19999999 0.024685198
-0.014956885 0.19999999 0.024169238
-0.0085359719 0.19999999 0.02410154
0.01535764 0.19999999 0.024121054
0.017753618 0.2 0.024262346
0.019753937 0.19999997 0.024392474
0.033975154 0.19999999 0.024858555
0.040527519 0.19999999 0.024897957
0.045711346 0.19999999 0.024199169
0.05319795 0.19999999 0.024532801
0.068157539 0.19999999 0.024142755
0.069951445 0.19999999 0.024645099
0.07224638 0.19999999 0.024483971
0.073798768 0.19999999 0.024151763
0.093451597 0.19999999 0.024047114
0.097183317 0.19997096 0.02457156
-0.09740825 -0.19993533 0.025939399
-0.095022291 -0.19999999 0.025743311
-0.073889509 -0.19999999 0.025802147
-0.066138826 -0.19999999 0.025690112
-0.064404577 -0.19999999 0.025308391
-0.063455582 -0.19999999 0.025685769
-0.061380286 -0.19999999 0.025311738
-0.05838779 -0.19999999 0.025011938
-0.045625132 -0.19999999 0.025314862
-0.0412855 -0.19999999 0.025470963
-0.036047246 -0.19999999 0.025928335
-0.021529084 -0.2 0.025938371
-0.020729344 -0.19999999 0.025223095
-0.012337088 -0.19999999 0.025235619
-0.0089040007 -0.2 0.025245447
-0.0029011955 -0.19999999 0.02592835
0.00040597917 -0.19999999 0.025501173
0.0027624408 -0.19999999 0.025830878
0.0047537824 -0.19999999 0.025091486
0.020252794 -0.19999999 0.025961155
0.030340457 -0.19999999 0.025383094
0.031502292 -0.19999999 0.025845952
0.032244183 -0.19999999 0.025670657
0.039183911 -0.19999999 0.025692303
0.061788522 -0.19999999 0.025162989
0.066448368 -0.19999999 0.025504025
0.074476182 -0.19999999 0.025529223
0.078354552 -0.19999999 0.025632884
0.079872601 -0.19999999 0.025519604
0.087380908 -0.19999999 0.025714833
0.099910103 -0.1975676 0.025881141
-0.099999994 -0.19087103 0.02585333
-0.099999994 -0.18961695 0.025533753
-0.099999994 -0.18641381 0.025511198
0.099999994 -0.18346281 0.025564305
-0.099999994 -0.17723338 0.02511373
0.099999994 -0.17717661 0.025496975
0.099999994 -0.1769996 0.02557691
-0.099999994 -0.17136872 0.02595159
0.099999994 -0.17163979 0.02555755
0.099999994 -0.16857599 0.025007686
-0.099999994 -0.16755684 0.025795283
-0.099999994 -0.16645591 0.025944896
0.099999994 -0.16333418 0.025249144
-0.099999994 -0.1585898 0.025441276
0.099999994 -0.15674436 0.025194289
0.099999994 -0.15442666 0.025002554
-0.099999994 -0.15249634 0.025312552
-0.099999994 -0.14811167 0.0257625
0.099999994 -0.14809881 0.025762239
-0.099999994 -0.14743277 0.02509856
0.099999994 -0.14399365 0.025712587
-0.099999994 -0.14291605 0.0253723
0.099999994 -0.14263085 0.025224762
0.099999994 -0.1385836 0.025917534
0.099999994 -0.13710432 0.025892559
-0.099999994 -0.1357794 0.025063766
0.099999994 -0.13514107 0.02586963
0.099999994 -0.13438423 0.025390023
-0.099999994 -0.13392133 0.025166186
0.099999994 -0.12504712 0.02560973
-0.099999994 -0.12312419 0.025127776
-0.099999994 -0.11761368 0.025455071
0.099999994 -0.11780081 0.025291139
-0.099999994 -0.11642046 0.025276648
-0.099999994 -0.10672577 0.025709804
0.099999994 -0.10632369 0.025476243
-0.099999994 -0.10570326 0.025487095
0.099999994 -0.10343643 0.025622806
-0.099999994 -0.10092963 0.025326582
0.099999994 -0.095624097 0.025066532
-0.099999994 -0.094214663 0.025105098
0.099999994 -0.09110707 0.025874294
0.099999994 -0.089434311 0.025631037
0.099999994 -0.088125177 0.025320057
0.099999994 -0.085348643 0.025031326
0.099999994 -0.080947459 0.025314629
0.099999994 -0.074309126 0.025586648
-0.099999994 -0.066406146 0.025259154
-0.099999994 -0.061887261 0.025294699
0.099999994 -0.054215733 0.025309045
0.099999987 -0.053895421 0.025850572
0.1 -0.04256051 0.025563518
0.099999994 -0.039397988 0.025876308
0.099999994 -0.037501253 0.02503912
-0.099999994 -0.033521459 0.025030255
0.099999994 -0.032308392 0.025655696
-0.099999994 -0.031790629 0.025496613
0.099999994 -0.031579334 0.025431126
-0.099999994 -0.028756479 0.025262447
0.1 -0.025463525 0.025250647
-0.099999994 -0.02477758 0.025810927
0.099999994 -0.024900934 0.025391245
-0.099999994 -0.021376798 0.025274415
0.099999994 -0.018514005 0.025385147
-0.099999994 0.0048406594 0.025747744
0.099999994 0.0047597862 0.025737561
0.099999994 0.0053250948 0.02588263
-0.099999994 0.015800472 0.02537317
0.099999994 0.015299247 0.025166716
0.099999994 0.017562283 0.025966939
-0.099999987 0.019396722 0.025763215
0.099999994 0.019509641 0.025446063
0.099999994 0.026676558 0.025755465
-0.099999994 0.027097519 0.025487212
0.099999994 0.027421877 0.025165765
0.099999994 0.033701792 0.025214722
-0.099999994 0.034054797 0.025226049
0.099999994 0.035064116 0.025338309
0.099999994 0.044145137 0.025183724
0.099999994 0.046877056 0.025304144
0.099999994 0.050042588 0.025067396
-0.099999994 0.05107934 0.02597204
-0.099999994 0.059193462 0.025172848
-0.099999994 0.06063642 0.025298709
-0.099999994 0.062114757 0.025498403
0.099999994 0.066742063 0.025675843
0.099999994 0.067356907 0.025552096
-0.099999994 0.073699236 0.025311269
0.099999994 0.074234962 0.025635108
0.099999994 0.076846458 0.025642743
0.099999994 0.078984059 0.025064819
-0.099999994 0.085330509 0.025128109
0.099999994 0.085095525 0.025857233
0.099999994 0.089557111 0.025866902
0.099999994 0.090783805 0.025687872
0.099999994 0.093599997 0.025369948
0.099999994 0.09527415 0.025039306
-0.099999994 0.10410906 0.025651105
0.099999994 0.11910079 0.025771525
0.099999994 0.12342151 0.025138021
-0.099999994 0.12542039 0.025562659
-0.099999994 0.13361256 0.02580983
0.099999994 0.13953048 0.025397237
0.099999994 0.1412212 0.02565245
0.099999994 0.1428335 0.025622129
0.099999994 0.14446604 0.025287654
0.099999994 0.14995912 0.025863942
0.099999994 0.16484603 0.02553631
-0.099999994 0.16682252 0.025031095
0.099999994 0.16798604 0.025685847
-0.099999994 0.16869904 0.025457785
0.099999994 0.16898108 0.025918515
-0.099999994 0.18861933 0.02528014
-0.099999994 0.19285826 0.025777968
-0.099999994 0.19471081 0.025050482
-0.092442818 0.19999999 0.025491193
-0.08643017 0.19999999 0.025497237
-0.084314279 0.19999999 0.025269486
-0.075285904 0.19999999 0.02517239
-0.073422886 0.19999999 0.025598025
-0.068563275 0.19999999 0.025341554
-0.057889026 0.19999999 0.0259319
-0.047932364 0.19999999 0.025052531
-0.0309697 0.19999999 0.025910351
-0.028080333 0.19999999 0.025806993
-0.025940957 0.19999999 0.025362665
-0.010212117 0.19999999 0.025720105
-0.0062748017 0.19999999 0.025681969
0.0074851913 0.19999999 0.025552744
0.012557885 0.19999999 0.025368497
0.015012377 0.19999999 0.025895311
0.026292514 0.19999999 0.02524728
0.029431749 0.19999997 0.02554787
0.033431258 0.19999999 0.025830684
0.03465734 0.19999999 0.025350586
0.053438671 0.19999999 0.025430879
0.054566011 0.19999999 0.025505088
0.063509032 0.19999999 0.025967829
0.066628069 0.19999999 0.02553075
0.070698373 0.19999999 0.02551255
0.086495914 0.19999999 0.025804417
0.091438614 0.19999999 0.025205636
0.098187424 0.1997205 0.025989711
-0.09182661 -0.19999999 0.026117655
-0.088616617 -0.19999999 0.026360486
-0.060374454 -0.19999999 0.026967946
-0.054914001 -0.19999999 0.02650376
-0.040573232 -0.19999999 0.026586426
-0.038787492 -0.19999999 0.026366364
-0.036658145 -0.19999999 0.026698349
-0.034280084 -0.19999999 0.026767954
-0.032506336 -0.19999999 0.026552116
-0.008770749 -0.19999997 0.026840927
-7.0802613e-05 -0.19999999 0.026363833
0.0010865354 -0.19999999 0.026435746
0.0033212663 -0.19999999 0.026298538
0.02734571 -0.19999999 0.026559953
0.049517144 -0.19999999 0.026975185
0.053307265 -0.19999999 0.02689627
0.057568628 -0.19999999 0.026671143
0.058527298 -0.19999999 0.026695559
0.062293347 -0.19999999 0.026017334
0.079710707 -0.19999999 0.026591003
0.08122246 -0.19999999 0.026860364
0.094717868 -0.19999999 0.026813127
0.099463589 -0.19869164 0.026282456
0.099966809 -0.19720949 0.026543884
0.099999994 -0.19521274 0.026367053
0.099999994 -0.19433697 0.026561828
-0.099999994 -0.19374841 0.026816364
0.099999994 -0.19372497 0.026545081
0.099999994 -0.18730356 0.026067013
-0.099999994 -0.18633078 0.026762856
-0.099999994 -0.1839186 0.026264442
-0.099999994 -0.18074927 0.026540045
0.099999994 -0.18092516 0.02630754
0.099999994 -0.17684804 0.026177384
-0.099999994 -0.17387077 0.026474057
0.099999994 -0.16976167 0.026214041
-0.099999994 -0.1677068 0.026493561
-0.099999994 -0.16045514 0.026172997
0.099999994 -0.15745448 0.026814945
-0.099999994 -0.15301684 0.02640052
-0.099999994 -0.15102831 0.026483679
0.099999994 -0.1414094 0.026106374
0.099999994 -0.13920282 0.026561923
0.099999994 -0.13678503 0.026327029
0.099999994 -0.13139701 0.026425898
-0.099999994 -0.12958248 0.026459841
-0.099999994 -0.12642767 0.026189944
-0.099999994 -0.12480778 0.026237927
-0.099999994 -0.12349863 0.026875859
-0.099999994 -0.12161788 0.026267033
0.099999994 -0.11973321 0.02688056
-0.099999994 -0.11473384 0.026461741
-0.099999994 -0.11337344 0.026372068
0.099999994 -0.10777549 0.0264706
-0.099999994 -0.10600431 0.026429711
-0.099999994 -0.10548835 0.026128525
0.099999994 -0.10477038 0.026085414
-0.099999994 -0.10075114 0.026329391
0.099999994 -0.10021144 0.02611465
-0.099999994 -0.099713117 0.026133645
0.099999994 -0.084372118 0.026301417
-0.099999994 -0.082597792 0.026891343
0.099999994 -0.076543957 0.026364556
-0.099999994 -0.073132552 0.026420087
0.099999994 -0.070384607 0.026441347
0.1 -0.066238292 0.026998904
-0.099999994 -0.06359455 0.026708109
0.099999994 -0.059198022 0.026372932
0.099999994 -0.05326166 0.026111681
0.099999994 -0.052793015 0.026851403
0.099999987 -0.050076373 0.026579082
-0.099999994 -0.049411364 0.026382554
-0.099999994 -0.0455749 0.02695908
0.099999994 -0.041128393 0.026562234
-0.099999994 -0.038524244 0.0261952
0.099999994 -0.036700126 0.026889831
0.099999994 -0.034190215 0.026375499
0.099999994 -0.030212844 0.026414571
-0.099999994 -0.026901118 0.026428873
0.099999994 -0.026040584 0.026377369
-0.099999994 -0.023195062 0.026221419
-0.099999994 -0.021364747 0.026304912
-0.099999994 -0.013268592 0.026070869
-0.099999994 -0.012485436 0.026376262
0.1 -0.0081387367 0.02621229
-0.099999994 -0.0050397958 0.026444098
0.099999994 -0.0022621895 0.026462305
0.099999994 0.0070381495 0.026550453
0.099999994 0.0087452224 0.02679796
-0.099999994 0.016072126 0.026338322
-0.099999994 0.021480996 0.026258372
-0.099999987 0.025200998 0.026093584
-0.099999994 0.027106281 0.026640385
0.099999994 0.028054966 0.026095897
-0.099999994 0.029559489 0.026818709
-0.099999994 0.030874822 0.02681808
0.099999994 0.030004932 0.026255891
-0.1 0.031559996 0.026333394
-0.099999994 0.034053102 0.026017519
0.099999994 0.035739332 0.026760111
0.099999994 0.039528634 0.02600931
-0.099999994 0.050275385 0.026099358
0.099999994 0.054870404 0.026252624
-0.099999994 0.058887377 0.026494561
-0.099999994 0.059692826 0.026652969
0.099999994 0.061563462 0.026896926
0.099999994 0.062288556 0.026785789
-0.099999994 0.06421525 0.026108649
0.099999994 0.064963251 0.02664951
-0.099999994 0.074471921 0.02679803
-0.099999994 0.075705975 0.026051078
-0.099999994 0.08047422 0.026172781
-0.099999994 0.081166193 0.026839709
0.099999994 0.089933157 0.026107905
-0.099999994 0.096180335 0.026240062
0.099999994 0.10251003 0.026098035
-0.099999994 0.10514765 0.026929086
-0.099999994 0.10708839 0.026195854
0.099999994 0.10932204 0.02607413
0.099999994 0.11656615 0.026159663
0.099999994 0.11795469 0.026703347
-0.099999994 0.12803784 0.026564641
0.099999994 0.13226101 0.026158636
0.099999994 0.13369763 0.026750857
-0.099999994 0.13477522 0.026029795
-0.099999994 0.135434 0.026028413
0.099999994 0.13788843 0.026135767
-0.099999994 0.14333487 0.026434129
-0.099999994 0.15014869 0.026648035
-0.099999994 0.15210786 0.026575549
-0.099999994 0.15553287 0.026556091
-0.099999994 0.15922423 0.026933454
-0.099999994 0.16296534 0.026661102
-0.099999994 0.16414754 0.026290216
-0.099999994 0.16673383 0.026485382
0.099999994 0.17246965 0.026141597
-0.099999994 0.17507461 0.026014088
0.099999994 0.17572868 0.026074933
0.099999994 0.1815818 0.026633391
0.099999994 0.18827856 0.026110373
0.099914312 0.197541 0.026602523
-0.093953542 0.19999999 0.026026441
-0.081011094 0.19999999 0.026137842
-0.074450858 0.19999999 0.026789712
-0.072373845 0.19999999 0.026996979
-0.057810824 0.19999999 0.026247196
-0.05561633 0.19999999 0.026474958
-0.054577596 0.19999999 0.026719123
-0.049528487 0.19999999 0.026298752
-0.037240628 0.19999999 0.026046224
-0.033234108 0.19999999 0.026862822
-0.029498732 0.19999999 0.026686046
-0.026798239 0.19999999 0.02602542
-0.022208624 0.19999999 0.026353968
-0.021180047 0.19999999 0.02667371
-0.017752672 0.19999999 0.026197035
-0.0081554214 0.19999999 0.026902774
0.0078640636 0.19999999 0.026664576
0.0096914787 0.19999999 0.026583407
0.024979318 0.19999999 0.02631126
0.025223941 0.19999999 0.02609765
0.031498451 0.19999999 0.026878055
0.035725556 0.19999999 0.026279772
0.052295685 0.19999999 0.026236665
0.085526705 0.19999999 0.026804829
0.097825892 0.19986919 0.02678401
-0.099098645 -0.19909175 0.027055789
-0.092755847 -0.19999999 0.027464502
-0.076381296 -0.19999999 0.027412411
-0.073785543 -0.19999999 0.027750637
-0.072021455 -0.19999999 0.027300447
-0.059262678 -0.19999999 0.027863543
-0.058824383 -0.19999999 0.027334403
-0.027488634 -0.2 0.027964424
-0.023451898 -0.19999999 0.027896222
-0.019934963 -0.19999999 0.027438089
-0.017874198 -0.19999999 0.027508628
-0.010368453 -0.19999999 0.027626805
-0.0092484429 -0.19999999 0.027859917
-0.0028702135 -0.19999999 0.027267588
0.013076048 -0.19999999 0.027661221
0.014574122 -0.19999999 0.027391337
0.024890855 -0.19999999 0.027700413
0.027974058 -0.19999999 0.027309228
0.033471972 -0.19999999 0.027650453
0.038229458 -0.19999999 0.027421951
0.041597221 -0.19999999 0.027438201
0.047179084 -0.19999999 0.027390081
0.050323587 -0.19999999 0.027568972
0.053886514 -0.19999999 0.027417468
0.066759735 -0.19999999 0.027248263
0.07701683 -0.19999999 0.027385961
0.083213195 -0.19999999 0.027111439
-0.099229939 -0.19896045 0.027167492
0.099999994 -0.1907295 0.027279258
-0.099999994 -0.18728067 0.027768886
-0.099999994 -0.18544456 0.027466537
0.099999994 -0.1855997 0.02730171
-0.099999994 -0.18387574 0.027563591
-0.099999994 -0.17011173 0.027451154
0.099999994 -0.17092715 0.027200241
0.099999994 -0.16466635 0.027759051
0.099999994 -0.16231035 0.027428105
0.099999994 -0.1607205 0.027711965
-0.099999994 -0.15777129 0.02797482
0.099999994 -0.15004991 0.027168991
0.099999994 -0.14535826 0.027819254
-0.099999994 -0.14266828 0.027518183
0.099999994 -0.13703719 0.027295211
-0.099999994 -0.12887894 0.027645564
0.099999994 -0.12830146 0.027018936
-0.099999994 -0.12571989 0.027583417
0.099999994 -0.12265026 0.027721819
0.099999994 -0.12187944 0.027807698
-0.099999994 -0.12062974 0.02708889
-0.099999994 -0.11749895 0.027802616
0.099999994 -0.11770131 0.027387861
0.099999994 -0.11672541 0.027866436
0.099999994 -0.11464708 0.027343862
0.1 -0.11387319 0.027254153
0.099999994 -0.11282957 0.027736086
-0.099999994 -0.11043926 0.027917238
0.099999994 -0.10457185 0.027135679
0.099999994 -0.099149778 0.027280243
-0.099999994 -0.096694931 0.027157417
0.099999994 -0.093573287 0.027193364
0.099999994 -0.089428931 0.027994329
0.099999994 -0.084018588 0.027941136
0.099999994 -0.080409586 0.027129279
-0.099999994 -0.079405822 0.027593361
0.099999994 -0.078407831 0.027211178
-0.099999994 -0.07767567 0.027325548
-0.099999994 -0.072019488 0.027432248
0.099999994 -0.071824655 0.027040554
-0.099999994 -0.070783056 0.027400909
0.099999987 -0.061992075 0.027111448
-0.099999994 -0.056453314 0.027332582
0.099999994 -0.05325181 0.027455816
0.099999994 -0.052049369 0.027281864
-0.099999994 -0.051054392 0.027551115
-0.099999994 -0.047636528 0.027380886
-0.099999994 -0.045394946 0.027701024
-0.099999994 -0.044859234 0.027331013
0.099999994 -0.044000968 0.02769603
-0.099999994 -0.023986978 0.027426204
0.099999994 -0.021164315 0.027009411
-0.099999994 -0.019055901 0.027379701
0.099999994 -0.019640492 0.02747871
0.099999994 -0.018285966 0.027086005
-0.099999994 -0.011889245 0.027109507
0.099999994 -0.010034832 0.027168674
-0.099999994 -0.0036384189 0.027142067
0.099999994 -0.0035972442 0.027781144
0.099999994 -0.00057300262 0.02733919
-0.099999994 0.005357299 0.02795762
-0.099999994 0.0088808555 0.027920716
-0.099999994 0.011414108 0.027346689
-0.099999994 0.012304132 0.027247226
-0.099999994 0.014841621 0.027294951
0.099999994 0.018418072 0.027490651
0.099999994 0.019440033 0.027636448
-0.099999994 0.020818047 0.02780208
-0.099999994 0.026151584 0.027674312
-0.099999994 0.027654672 0.027585279
-0.099999994 0.028732089 0.027949786
0.099999994 0.028834833 0.0277061
0.099999994 0.03315863 0.027721835
0.099999994 0.038667962 0.02798776
-0.1 0.042491902 0.027635137
0.099999994 0.043284252 0.027236076
-0.099999994 0.048662048 0.027329681
0.099999994 0.052856494 0.027289603
-0.099999994 0.053077623 0.02720825
0.099999994 0.056769226 0.027007978
0.099999994 0.0589743 0.027482504
-0.099999994 0.062013119 0.027810069
0.099999994 0.06244982 0.027134633
-0.099999994 0.066929854 0.027032381
0.099999994 0.071095459 0.027301382
0.099999994 0.075718187 0.027303834
-0.099999994 0.079527944 0.027191408
0.099999994 0.080491118 0.027664602
-0.099999994 0.081097037 0.027650386
0.099999994 0.081679396 0.027750526
0.099999994 0.084095895 0.027060477
0.099999994 0.091533512 0.027399296
0.099999994 0.093773156 0.027325116
-0.099999994 0.094379127 0.027826613
-0.099999994 0.096169353 0.027512539
0.099999994 0.10017646 0.027076876
-0.099999994 0.10414185 0.027536457
0.099999994 0.10591549 0.027389491
-0.099999994 0.10869639 0.027745768
-0.099999994 0.11482882 0.027476136
0.099999994 0.12003339 0.027567247
-0.099999994 0.1247608 0.02730255
-0.099999994 0.12604912 0.027273431
0.099999994 0.12636116 0.02717399
-0.099999994 0.12802146 0.027331458
-0.099999994 0.14199501 0.027967058
0.099999994 0.14506263 0.027030522
-0.099999994 0.14689012 0.027954252
0.099999994 0.14904568 0.027818512
-0.099999994 0.15016988 0.027445992
0.099999994 0.15829346 0.027911419
-0.099999994 0.16111113 0.027909735
0.099999994 0.16179961 0.027338341
-0.099999994 0.16290921 0.02727849
0.099999994 0.16493243 0.027503563
0.099999994 0.16849379 0.0278707
-0.099999994 0.16902696 0.027646031
0.099999994 0.17524987 0.027088249
0.099999994 0.17858952 0.027513102
0.099999994 0.18217212 0.027227322
0.099999994 0.18740475 0.027536513
0.099999994 0.19302163 0.027661454
0.099999994 0.19479045 0.027185393
-0.089368857 0.19999999 0.027649157
-0.085475318 0.19999999 0.027513718
-0.083747648 0.19999999 0.027431134
-0.06962771 0.19999999 0.027596166
-0.057482846 0.19999999 0.027536187
-0.049283605 0.19999999 0.027735922
-0.042111058 0.19999999 0.027017079
-0.041845929 0.19999999 0.027478814
-0.039322577 0.19999999 0.027323892
-0.034433495 0.19999999 0.027291937
-0.033655949 0.19999999 0.027684312
-0.031111619 0.19999999 0.027155815
-0.027608318 0.19999999 0.027987976
-0.015375199 0.19999999 0.02788263
-0.014763445 0.19999999 0.027569059
-0.0097759282 0.19999999 0.027540911
0.00012591957 0.19999999 0.027337767
0.0025040987 0.19999999 0.027082296
0.0081542339 0.19999999 0.027396539
0.01312041 0.19999999 0.027999181
0.017511463 0.19999997 0.027527248
0.020795092 0.19999999 0.02779739
0.024901126 0.19999999 0.027181197
0.047119617 0.19999999 0.027997294
0.06101957 0.19999999 0.027655933
0.073646583 0.19999999 0.027809871
0.080482669 0.19999999 0.027505446
0.095411561 0.19999999 0.027637038
-0.091899738 -0.19999999 0.028034288
-0.086926825 -0.19999999 0.028841851
-0.077090085 -0.19999999 0.028108202
-0.061608743 -0.19999999 0.028257217
-0.043715306 -0.19999999 0.028258048
-0.03753534 -0.19999999 0.028674882
-0.024909124 -0.19999999 0.028094241
-0.023376342 -0.19999999 0.028254345
-0.01543902 -0.19999999 0.028907267
-0.0098487893 -0.19999999 0.028367346
-0.0073127854 -0.19999999 0.028608436
-0.0024357634 -0.19999999 0.02808604
0.0066581485 -0.19999999 0.028792795
0.0072367652 -0.19999999 0.028639846
0.010501375 -0.19999999 0.028615709
0.017432451 -0.19999999 0.028065538
0.025467994 -0.19999999 0.028771399
0.036008716 -0.19999999 0.028536703
0.04162512 -0.19999999 0.028981378
0.042371415 -0.19999999 0.028349835
0.049437832 -0.19999999 0.02859785
0.052460313 -0.19999999 0.028286504
0.055461422 -0.19999999 0.028670914
0.063703924 -0.19999999 0.028750205
0.077932753 -0.19999999 0.028748728
0.083643064 -0.19999999 0.028789802
0.093033306 -0.19999999 0.028151961
0.09422496 -0.19999999 0.028490875
0.099497899 -0.19862431 0.028422281
-0.099871829 -0.19780923 0.028276561
-0.099999994 -0.19157372 0.028752077
-0.099999994 -0.19018275 0.028891889
-0.099999994 -0.18926834 0.028756591
0.099999994 -0.18696176 0.028647499
-0.099999994 -0.1776845 0.028936844
-0.099999994 -0.17692804 0.028903259
-0.099999994 -0.17535338 0.028913897
-0.099999994 -0.17403118 0.028616557
0.099999994 -0.17128204 0.028469944
0.099999994 -0.1691058 0.028384691
0.099999994 -0.16735645 0.028833468
0.099999994 -0.16522071 0.028999422
-0.099999994 -0.16028765 0.028359339
0.099999994 -0.15872765 0.028481597
-0.099999994 -0.15664509 0.028112711
-0.099999994 -0.15288158 0.028064592
0.099999994 -0.14975837 0.028903773
-0.099999994 -0.14045367 0.028015325
0.099999994 -0.14043808 0.028586907
-0.099999994 -0.13895546 0.028695529
-0.099999994 -0.13736753 0.028201483
0.099999994 -0.13660525 0.028380165
0.099999994 -0.1350722 0.028859437
-0.099999994 -0.13482204 0.028391134
0.099999994 -0.13423654 0.02894943
-0.099999994 -0.13052377 0.028906967
0.099999994 -0.12434472 0.0289037
0.099999994 -0.11704282 0.028752189
-0.099999994 -0.10683539 0.02829903
0.099999994 -0.10608625 0.028899776
0.1 -0.10507549 0.028452164
0.099999994 -0.10338909 0.028000399
0.099999994 -0.10282876 0.028749824
-0.099999994 -0.099955432 0.028197264
0.099999994 -0.098663688 0.02859531
0.099999994 -0.095078349 0.028333806
0.099999994 -0.092523217 0.028131945
0.099999994 -0.084673613 0.028671462
-0.099999994 -0.083161972 0.02811983
0.099999994 -0.083096132 0.028682124
0.099999994 -0.075804055 0.028576529
0.099999994 -0.072165862 0.028802825
0.099999994 -0.068903193 0.028706269
0.099999994 -0.066571757 0.028865809
-0.099999994 -0.063271686 0.02888228
0.099999994 -0.049018424 0.028489022
0.1 -0.04463622 0.028878259
0.099999994 -0.043504871 0.028409036
-0.099999994 -0.04204018 0.028357932
-0.099999994 -0.041873444 0.028975308
0.099999994 -0.040747773 0.028852079
0.099999994 -0.038420603 0.02856862
0.099999994 -0.034540672 0.028286215
0.099999994 -0.031445522 0.02892879
0.099999994 -0.029194463 0.028970195
-0.099999994 -0.028789489 0.028325778
0.099999994 -0.026628647 0.028463379
-0.099999994 -0.02521603 0.028332368
-0.099999994 -0.022043061 0.028538303
0.099999994 -0.021944983 0.028021321
0.099999994 -0.015898423 0.028457651
0.099999987 -0.014224121 0.028397918
0.099999994 -0.010171325 0.028709505
-0.099999994 -0.0076301685 0.028045615
-0.099999994 -0.0048960382 0.028770076
0.099999994 0.0032253254 0.028783917
-0.099999987 0.0066547743 0.028060792
0.099999994 0.0091360947 0.028637687
-0.099999994 0.016011499 0.02872804
0.099999994 0.016719878 0.028256323
-0.099999994 0.018774478 0.028287863
0.099999994 0.018296257 0.028390124
0.099999994 0.024165062 0.028855776
-0.099999994 0.026208414 0.028755417
-0.099999994 0.031920269 0.028846646
0.099999994 0.03860284 0.028724814
-0.099999994 0.040549815 0.028756836
0.099999994 0.043632735 0.028677491
-0.099999994 0.046133805 0.028582091
0.099999994 0.052478567 0.028537862
-0.099999994 0.053500716 0.028891532
0.099999994 0.056627925 0.028624905
0.099999994 0.063556433 0.028938264
0.099999994 0.064341299 0.028863411
-0.099999994 0.069521099 0.028157597
0.099999994 0.072486967 0.028704675
0.099999994 0.079546764 0.028096121
-0.099999994 0.083033651 0.028000014
-0.099999994 0.088543117 0.028866461
-0.099999994 0.09655343 0.028837558
-0.099999994 0.099167809 0.028026355
-0.099999994 0.10214236 0.028575305
-0.099999994 0.10862058 0.028728681
-0.099999994 0.11049992 0.028992767
-0.099999994 0.11273102 0.028057916
0.099999994 0.1121375 0.028845694
0.099999994 0.1131207 0.028910615
0.099999994 0.11616857 0.028224777
0.099999994 0.12289499 0.028446106
0.099999994 0.12320521 0.028370144
0.099999994 0.12703332 0.028419873
0.099999994 0.12833869 0.028270714
0.099999994 0.13276935 0.028602015
-0.099999994 0.13417307 0.028761156
-0.099999994 0.13594161 0.028185297
-0.099999994 0.13695692 0.028845388
0.099999994 0.1381025 0.028559927
-0.099999994 0.14069083 0.028063308
0.099999994 0.14641786 0.028991865
-0.099999994 0.14892022 0.028089095
0.099999994 0.148249 0.028901741
0.099999994 0.14924008 0.028996237
-0.099999994 0.15017582 0.028970348
-0.099999994 0.15144028 0.028052635
-0.099999994 0.15322024 0.028229158
-0.099999994 0.15482062 0.028218042
-0.099999994 0.15538768 0.028727816
-0.099999994 0.15650359 0.02841861
-0.099999994 0.15786086 0.028981995
0.099999994 0.18165934 0.028293185
0.099999994 0.18280673 0.028184136
-0.099999994 0.18405849 0.028486339
-0.099999994 0.18795246 0.028037077
0.099999994 0.18909362 0.028554792
-0.099999994 0.19188745 0.028237063
0.099999994 0.19170487 0.028261911
-0.099999994 0.19414008 0.028334089
0.099999994 0.19413179 0.028469386
-0.099938542 0.19738804 0.028941073
-0.09897352 0.19921687 0.028616207
-0.085387789 0.19999999 0.028054425
-0.074886031 0.19999999 0.028101631
-0.073520951 0.19999999 0.028404495
-0.071334846 0.19999999 0.02860691
-0.061243631 0.19999999 0.028454645
-0.036331557 0.19999999 0.028738003
-0.033575185 0.19999999 0.028680073
-0.031970419 0.19999999 0.028905755
-0.028907826 0.19999999 0.028946655
-0.0215673 0.19999999 0.028924223
-0.0042497669 0.19999999 0.028263941
-7.9728808e-05 0.19999999 0.028044105
0.0031590373 0.19999999 0.028461298
0.0091197956 0.19999999 0.028568767
0.020468337 0.19999999 0.02814395
0.033819158 0.19999999 0.028538149
0.035144132 0.19999999 0.028093373
0.036969099 0.19999999 0.028360298
0.038200241 0.19999999 0.02815083
0.043355599 0.19999999 0.028379962
0.054422397 0.19999999 0.028079668
0.059018172 0.19999999 0.028937539
0.063599892 0.19999997 0.028594496
0.074111275 0.19999999 0.028398203
0.075870343 0.19999999 0.028350715
0.080790065 0.19999999 0.028657734
0.083949819 0.19999999 0.028887454
0.087057196 0.19999999 0.028453257
0.088713303 0.19999999 0.028615128
-0.098073542 -0.19977853 0.029171765
-0.081543177 -0.19999999 0.029221609
-0.075049154 -0.19999999 0.029443186
-0.074316449 -0.19999999 0.029713878
-0.068931654 -0.19999999 0.029009106
-0.058410112 -0.19999999 0.02981055
-0.05218932 -0.19999999 0.029920002
-0.025658356 -0.19999999 0.029523468
-0.011021959 -0.19999999 0.029931815
-0.0058302721 -0.19999999 0.029558623
-0.00039975694 -0.19999999 0.029947702
0.0026682657 -0.19999999 0.02913365
0.0092343688 -0.19999999 0.029209865
0.014228106 -0.19999999 0.029497756
0.015862191 -0.19999999 0.029375987
0.024694147 -0.19999999 0.029676974
0.032942038 -0.19999999 0.029528558
0.034280777 -0.19999999 0.029405389
0.040853005 -0.19999999 0.029216623
0.041060682 -0.19999999 0.029500874
0.045741379 -0.19999999 0.029942373
0.047094997 -0.19999999 0.029382912
0.050357766 -0.19999999 0.029391073
0.051029637 -0.19999999 0.029005172
0.056008592 -0.19999999 0.029204622
0.057818279 -0.19999999 0.029943475
0.061537072 -0.19999999 0.029301926
0.068850182 -0.19999999 0.029883808
0.07392548 -0.19999999 0.029631408
0.07596346 -0.19999999 0.029639507
0.085568309 -0.19999999 0.029932674
0.086647019 -0.19999999 0.029407658
0.091703787 -0.19999999 0.029082401
0.09640421 -0.19999999 0.029803777
0.098773167 -0.19941722 0.029132886
-0.099999994 -0.19485447 0.029539077
-0.099999994 -0.1888845 0.029790955
-0.099999994 -0.18405549 0.02995442
-0.099999994 -0.18294729 0.02910798
-0.099999994 -0.17865555 0.029502304
-0.099999994 -0.17262957 0.029494694
0.099999994 -0.15763985 0.029604426
-0.099999994 -0.15205184 0.029588107
-0.099999994 -0.14586926 0.029551957
0.099999994 -0.14471917 0.029187871
-0.099999994 -0.14070286 0.029021367
-0.099999994 -0.13641509 0.029725593
0.099999994 -0.1342847 0.029382857
0.099999994 -0.12868108 0.029193155
0.099999994 -0.11992808 0.029894555
-0.099999994 -0.11581177 0.029066352
-0.099999994 -0.10971955 0.02970268
-0.099999994 -0.10732292 0.029749207
0.099999994 -0.10771544 0.029933328
0.099999994 -0.10617623 0.029137991
-0.099999994 -0.10535345 0.029653069
0.099999994 -0.10152785 0.029625902
0.099999994 -0.093108065 0.029643402
0.099999994 -0.092038997 0.029078523
0.1 -0.083679654 0.02911414
0.099999994 -0.082231678 0.029094651
0.099999994 -0.08027903 0.029980062
0.099999994 -0.075668633 0.029585989
-0.099999994 -0.074702814 0.029191917
-0.099999994 -0.068287805 0.029314939
0.099999994 -0.067867026 0.029728232
0.099999994 -0.05622153 0.029624389
0.099999994 -0.04634618 0.029279856
-0.099999994 -0.045614347 0.029130485
-0.099999994 -0.033545189 0.029028881
0.099999994 -0.031509493 0.029089386
-0.099999994 -0.026642399 0.029241886
0.099999994 -0.026953138 0.029452218
0.099999994 -0.024872998 0.029997883
-0.099999994 -0.022995343 0.029475017
0.099999994 -0.019372322 0.029115502
-0.099999994 -0.016615115 0.029162565
0.099999987 -0.015883051 0.029434429
0.099999994 -0.014137999 0.029116388
-0.099999994 -0.012697484 0.029480372
0.099999994 -0.012756642 0.029691417
0.099999994 -0.006069242 0.029551407
0.099999994 -0.0057151918 0.029988164
-0.099999994 0.001235189 0.029740989
-0.099999994 0.0022260193 0.029751064
0.099999994 0.0025790166 0.029335676
0.099999994 0.0066650361 0.02948953
-0.099999987 0.0075093675 0.029830713
0.099999994 0.007242816 0.029699262
0.099999994 0.010682691 0.029547002
0.099999987 0.012605725 0.029364062
-0.1 0.013704449 0.029234027
0.099999994 0.013295055 0.029874528
-0.099999994 0.015705531 0.029649194
-0.099999994 0.016445078 0.029132299
0.099999994 0.016332533 0.029683987
-0.099999994 0.017580407 0.02965777
0.099999994 0.018251685 0.029391315
0.099999994 0.027898399 0.029424218
-0.099999994 0.030052844 0.029189819
0.099999994 0.030717911 0.029389717
-0.099999994 0.031816501 0.029487453
0.099999994 0.036227077 0.029547129
0.099999994 0.045517605 0.02954305
-0.099999994 0.04730428 0.02991919
-0.099999994 0.057017628 0.029133681
0.099999994 0.058062013 0.029686673
0.099999994 0.060802653 0.029404525
0.099999994 0.061865985 0.029894147
-0.099999994 0.068866536 0.029091693
-0.099999994 0.07034713 0.029353671
0.099999994 0.070629664 0.029253421
-0.099999994 0.083787009 0.029873749
-0.099999994 0.085486591 0.029287402
-0.099999994 0.086137019 0.029205402
-0.099999994 0.087938733 0.029670613
0.099999994 0.08774256 0.029305199
0.099999994 0.092456996 0.029003797
-0.099999994 0.096661054 0.029676214
0.099999994 0.1019145 0.029139791
-0.099999994 0.10354017 0.029529057
0.099999994 0.10446534 0.029138237
-0.099999994 0.11275229 0.029237149
0.099999994 0.11264927 0.029089188
0.099999994 0.11346242 0.029996809
-0.099999994 0.12018933 0.029877018
-0.099999994 0.12407418 0.029455744
-0.099999994 0.12557223 0.029268686
0.099999994 0.12679347 0.029060388
-0.099999994 0.1290611 0.029998871
0.099999994 0.13523132 0.029805228
-0.099999994 0.13717623 0.029291054
-0.099999994 0.141096 0.02943171
0.099999994 0.1424349 0.029775281
-0.099999994 0.14308392 0.029249709
0.099999994 0.14513794 0.029082041
-0.099999994 0.14718786 0.029447256
-0.099999994 0.14916888 0.029735697
-0.099999994 0.15527162 0.029441629
0.099999994 0.16156593 0.029590482
-0.099999994 0.16457088 0.029378926
0.099999994 0.16550478 0.029915588
-0.099999994 0.16700816 0.029464887
-0.099999994 0.16998844 0.029606109
0.099999994 0.17030525 0.029282099
-0.099999994 0.17156537 0.029589428
0.099999994 0.17423786 0.029644392
0.099999994 0.17562863 0.02956949
-0.099999994 0.1760111 0.02922138
0.099999994 0.18067503 0.029209286
0.099999994 0.18223485 0.029738687
-0.099999994 0.18382347 0.02965703
0.099999994 0.18716338 0.029748037
0.099999994 0.18859339 0.029397819
0.099999994 0.19450447 0.029336497
-0.099999994 0.19519147 0.029595062
-0.099411473 0.19877893 0.029445192
0.09967228 0.19828205 0.029159274
-0.077974789 0.19999999 0.029393001
-0.075578019 0.19999999 0.029608818
-0.055659983 0.19999999 0.029845143
-0.031474866 0.19999999 0.029088531
-0.028053274 0.19999999 0.029806755
-0.027585143 0.19999999 0.0294588
-0.021575801 0.19999999 0.029136952
-0.0083515355 0.19999999 0.029279049
0.0034513555 0.19999999 0.02954665
0.0045237765 0.19999999 0.029496467
0.0057063526 0.19999997 0.029231258
0.0080261314 0.19999999 0.029441016
0.021265857 0.19999999 0.029871386
0.030450622 0.19999999 0.029404836
0.04733495 0.19999999 0.029057406
0.04896282 0.19999999 0.029302208
0.052603107 0.19999999 0.0291165
0.058654822 0.19999999 0.029341917
0.074548863 0.19999999 0.02913408
0.081343569 0.19999999 0.029766239
0.090488628 0.19999999 0.02924395
0.097075552 0.19998801 0.0299122
0.099073373 0.19911702 0.029615559
-0.09870676 -0.19945589 0.03012081
-0.089703746 -0.19999999 0.030633232
-0.088749498 -0.19999999 0.03036602
-0.085581847 -0.19999999 0.030995732
-0.0814652 -0.19999999 0.030681033
-0.069118306 -0.19999999 0.030852037
-0.064481497 -0.19999999 0.030426679
-0.059170447 -0.19999999 0.030740218
-0.053315174 -0.19999999 0.03014335
-0.04937081 -0.19999999 0.030787863
0.0023141429 -0.19999999 0.030579247
0.010568384 -0.19999999 0.030431841
0.013758293 -0.19999999 0.030132763
0.016254891 -0.19999999 0.030084729
0.021090647 -0.19999999 0.030257538
0.023218339 -0.19999999 0.030475155
0.025331816 -0.19999999 0.030724898
0.030055786 -0.19999999 0.030446665
0.041275393 -0.19999999 0.030891737
0.066152737 -0.19999999 0.030884337
0.068956777 -0.19999999 0.030983439
0.070018239 -0.19999999 0.030222606
0.081008747 -0.19999999 0.030618433
0.088405102 -0.19999999 0.030764747
0.092449561 -0.19999999 0.030675083
0.095977366 -0.19999999 0.030533498
-0.099437267 -0.1987433 0.030128118
-0.099999994 -0.19373922 0.030330282
0.099999994 -0.18656915 0.03074377
-0.099999994 -0.17171709 0.03052547
0.099999994 -0.16864687 0.03015111
-0.099999994 -0.16736561 0.030925397
-0.099999994 -0.16259742 0.030160092
-0.099999994 -0.16006556 0.030723711
0.099999994 -0.14944158 0.030258108
0.099999994 -0.14725903 0.030268123
0.099999994 -0.13927414 0.030162361
-0.099999994 -0.13875249 0.030848699
0.099999994 -0.13879131 0.030683761
-0.099999994 -0.13542296 0.030983701
0.099999994 -0.13547033 0.030702608
0.099999994 -0.12286211 0.030905047
-0.099999994 -0.11878237 0.030944331
0.099999994 -0.11083316 0.030261859
-0.099999994 -0.1085358 0.030827699
-0.099999994 -0.10778903 0.03004167
0.099999994 -0.10128339 0.03036068
-0.099999994 -0.093035027 0.030853115
-0.099999994 -0.090049028 0.030622108
-0.099999994 -0.089713134 0.030103028
0.099999994 -0.089094631 0.030305218
-0.099999994 -0.087821819 0.030445844
-0.099999994 -0.078781642 0.03000045
-0.099999994 -0.06901177 0.030185213
0.099999987 -0.069246113 0.030051533
-0.099999994 -0.053026017 0.030760368
0.1 -0.053953223 0.030975653
-0.099999994 -0.046780832 0.030706167
-0.099999994 -0.039364759 0.030086569
0.099999994 -0.030937839 0.030311199
0.099999994 -0.02856984 0.030693585
0.099999994 -0.021756627 0.030754186
-0.099999994 -0.016380493 0.030473439
0.099999994 -0.015132605 0.03093645
-0.099999994 -0.0056447624 0.03002267
-0.099999994 -0.0015720482 0.030294456
0.099999994 -0.00083756476 0.030465886
-0.099999994 0.0011360673 0.030475197
0.099999994 0.0017916249 0.03078777
-0.099999994 0.0036980244 0.030567043
-0.099999994 0.0069744359 0.030010851
-0.099999994 0.0084182546 0.030242721
0.099999994 0.020882504 0.030367
0.099999994 0.022847621 0.030530607
-0.099999994 0.025455587 0.030184202
0.099999994 0.028976895 0.030243475
-0.099999994 0.030151553 0.030702701
-0.099999994 0.043222778 0.030283943
-0.099999994 0.050459605 0.030824404
0.099999994 0.051014695 0.030713867
0.099999994 0.066437401 0.030903567
0.099999994 0.074643545 0.030149052
-0.099999994 0.076133914 0.030158365
-0.099999994 0.077824995 0.030992746
0.099999994 0.081109673 0.03004802
0.099999994 0.083172619 0.03099234
-0.099999994 0.086065099 0.030405376
-0.099999994 0.087913349 0.030347744
-0.099999994 0.094460487 0.030747427
0.099999994 0.095562823 0.030001903
-0.099999994 0.096456893 0.030497419
0.099999994 0.097870268 0.030722279
0.099999994 0.099590838 0.030067347
0.099999994 0.10142498 0.030843262
-0.099999994 0.1053813 0.030804502
0.099999994 0.10602524 0.030955663
0.099999994 0.10895687 0.030722372
-0.099999994 0.11082362 0.030125374
0.099999994 0.11254895 0.03073092
0.099999994 0.11479097 0.03082604
0.099999994 0.11951172 0.030249462
0.099999994 0.12575567 0.030711515
-0.099999994 0.12793879 0.030094812
-0.099999994 0.13104062 0.030096823
-0.099999994 0.13481617 0.030282857
0.099999994 0.13623393 0.030453268
-0.099999994 0.14215572 0.030761911
-0.099999994 0.14761831 0.030000683
0.099999994 0.14773372 0.030669305
-0.099999994 0.15092954 0.030719442
-0.099999994 0.15806741 0.030263461
-0.099999994 0.15906169 0.030460725
-0.099999994 0.17446227 0.030267669
0.099999994 0.1742655 0.030475881
-0.099999994 0.18005207 0.030280869
0.099999994 0.18457043 0.030537406
-0.099999994 0.18616207 0.030016677
-0.099999994 0.18804626 0.030442154
0.099999994 0.19234669 0.030545497
0.099494264 0.19863144 0.030014129
-0.093821011 0.19999999 0.030776886
-0.089006998 0.19999999 0.030889159
-0.087121613 0.19999999 0.030222261
-0.086844705 0.19999999 0.030982498
-0.083836354 0.19999999 0.030123394
-0.0806235 0.19999999 0.030917704
-0.077319913 0.19999999 0.030762838
-0.07345254 0.19999999 0.030144582
-0.066932641 0.19999999 0.030348592
-0.064684115 0.19999999 0.030152755
-0.057701357 0.19999999 0.030677682
-0.047573891 0.19999999 0.030394141
-0.043408714 0.19999999 0.030059783
-0.025504524 0.19999999 0.030588873
-0.022430999 0.19999999 0.030911544
-0.016253596 0.19999999 0.030166829
-0.014045663 0.19999999 0.030660631
-0.01345294 0.19999999 0.03026058
-0.011820861 0.19999999 0.030131562
-0.0089400401 0.19999999 0.030114966
-0.0012230502 0.19999999 0.030957803
0.0036641436 0.19999999 0.030812075
0.012941033 0.19999999 0.030794306
0.014121083 0.19999999 0.030427562
0.016640179 0.19999999 0.030452581
0.038934663 0.19999999 0.030711187
0.03993224 0.19999999 0.030982433
0.055154398 0.19999999 0.030368447
0.061816286 0.19999999 0.030115616
0.067911237 0.19999999 0.030617094
0.072209656 0.19999999 0.030885736
0.076175861 0.19999999 0.030249577
0.090258554 0.19999999 0.030063227
0.095330305 0.19999999 0.030736228
0.096298695 0.19999999 0.030002737
-0.091851287 -0.19999999 0.031256389
-0.090346597 -0.19999999 0.031931337
-0.083216749 -0.19999999 0.031880915
-0.070931785 -0.19999999 0.03162647
-0.067469597 -0.19999999 0.031753007
