# .PCD v0.7 - Point Cloud Data file format
VERSION 0.7
FIELDS x y z normal_x normal_y normal_z curvature
SIZE 4 4 4 4 4 4 4
TYPE F F F F F F F
COUNT 1 1 1 1 1 1 1
WIDTH 598
HEIGHT 1
VIEWPOINT 0 0 0 1 0 0 0
POINTS 598
DATA ascii
0.12460494 0.30436477 1.1079092 0.29696023 0.5271042 -0.79622602 0.0063926629
0.13540363 0.30228171 1.1090001 0.23335081 0.56851244 -0.78888589 0.00511829
0.14152953 0.3010143 1.109 0.23305254 0.5745247 -0.7846067 0.0044457754
0.087810181 0.31660637 1.1020001 0.26837125 0.46830425 -0.84182411 0.0088222101
0.09563753 0.31528828 1.1035 0.2792767 0.52544647 -0.80368561 0.006944404
0.10496103 0.31487772 1.1046154 0.29037076 0.55142891 -0.78205562 0.0034152961
0.11285162 0.31323677 1.1074001 0.359676 0.50207317 -0.78648317 0.00431776
0.06716954 0.32850093 1.102 0.25699863 0.51595777 -0.81715316 0.0045486642
0.075247973 0.32652417 1.1039286 0.29556283 0.51795268 -0.80272514 0.0054802787
0.085377589 0.32497558 1.1053499 0.3005842 0.56006306 -0.77199644 0.003448565
0.094465911 0.32324553 1.107 0.30556139 0.57782912 -0.7567997 0.0036854271
0.10315462 0.32178602 1.1090001 0.28708878 0.58008713 -0.76228529 0.0016330547
0.048836429 0.33765262 1.1027501 0.27833864 0.53103638 -0.80032992 0.0030589856
0.055389814 0.33669174 1.1032858 0.22267132 0.5301944 -0.81811458 0.0023878589
0.065394886 0.33454838 1.1039333 0.25139245 0.53353697 -0.80755198 0.003282883
0.074960761 0.3349137 1.1085554 0.33070517 0.56402475 -0.75664395 0.0033911983
0.082910962 0.33270001 1.109 0.33802223 0.55229002 -0.76204771 0.0036171072
0.01994097 0.34949142 1.102 0.29225358 0.52236086 -0.80107868 0.00664867
0.026238104 0.34949145 1.102 0.3007943 0.54242963 -0.78440607 0.0051303026
0.035843607 0.34687915 1.1033334 0.28328556 0.57873154 -0.76473469 0.0038529942
0.045526035 0.34572956 1.1062105 0.26524892 0.58188283 -0.76880115 0.0026724671
0.054894716 0.34519741 1.1084287 0.21672924 0.57783878 -0.7868486 0.00143697
0.063275427 0.34287786 1.1090002 0.27366665 0.54732829 -0.79090971 0.0023947402
0.07076475 0.34114951 1.109 0.30787513 0.5302431 -0.78997165 0.003050288
0.0094457334 0.35998666 1.102 0.36967677 0.43356252 -0.82180452 0.0049438309
0.016738998 0.35625252 1.103 0.34679735 0.43552837 -0.8306905 0.0049175131
0.025031665 0.35520059 1.1056923 0.32045093 0.48761708 -0.81212121 0.0066243648
0.034357842 0.35367143 1.1075716 0.31014451 0.5327574 -0.78738803 0.0038064541
0.041191444 0.35171139 1.109 0.30137154 0.55623478 -0.7744534 0.002549896
-0.001049504 0.36838287 1.102 0.33270153 0.51609468 -0.78927559 0.0044729267
0.0061745346 0.36612788 1.1034999 0.33810821 0.50151545 -0.79634482 0.0074544917
0.01537386 0.36449081 1.1054667 0.32492098 0.47072342 -0.82027185 0.0075541022
0.023896331 0.36398962 1.1090001 0.36045465 0.43937927 -0.82281113 0.0043507796
0.030629542 0.36016098 1.109 0.36452958 0.44167984 -0.81977868 0.0048299618
-0.02203998 0.37887812 1.102 0.28148776 0.56579036 -0.77501357 0.0021854867
-0.014343485 0.37747875 1.1020001 0.28448153 0.56316125 -0.77583486 0.0023555355
-0.0052548978 0.37461302 1.1036499 0.31193098 0.56956619 -0.76045614 0.0045227096
0.0051396242 0.37490863 1.1084669 0.30543396 0.53590596 -0.78709263 0.0085967435
0.014258591 0.37230712 1.1090001 0.30944702 0.51815104 -0.79734683 0.0065380884
0.020067638 0.37072286 1.109 0.29655889 0.49555218 -0.81638277 0.0056298748
-0.033943806 0.38669172 1.1023334 0.26258859 0.57944959 -0.77154738 0.0053991997
-0.024932982 0.38517714 1.1044705 0.285732 0.58582842 -0.75839454 0.0032627485
-0.01609428 0.38421947 1.1057142 0.26847762 0.57000667 -0.77653855 0.0035449658
-0.0042247484 0.38234091 1.1090001 0.30162689 0.5454095 -0.78201646 0.0058246483
0.0010561706 0.38128477 1.109 0.31073827 0.53616053 -0.78483987 0.0053114882
-0.025169376 0.39204639 1.1078572 0.28454646 0.54290462 -0.79011887 0.0037263306
-0.045702849 0.038794279 1.1160001 -0.15838608 -0.73734117 -0.65669006 0.0044627883
-0.035074282 0.038262855 1.1160001 -0.08405114 -0.74134243 -0.66584277 0.0032316141
-0.024427706 0.038231146 1.1151001 -0.082389943 -0.74878645 -0.65767062 0.0016647201
-0.014572713 0.037345715 1.1146364 -0.093511038 -0.74748343 -0.65766573 0.0043276106
-0.0054190904 0.035920758 1.114579 0.020378897 -0.76182705 -0.64745981 0.0060920999
0.0049228612 0.037925459 1.1146364 0.065162607 -0.74505043 -0.66381741 0.0055349623
0.014860019 0.038209997 1.1145 -0.031029208 -0.79218298 -0.60949439 0.0091699241
0.024589544 0.037325244 1.1145 -0.11272109 -0.77627492 -0.62023479 0.0037673935
0.035408329 0.035793252 1.1143637 -0.098689944 -0.77948821 -0.61859381 0.0043801097
0.045147054 0.034695175 1.1143847 -0.044932131 -0.78627795 -0.61623704 0.0013780176
0.054832723 0.034312706 1.1143335 -0.023380559 -0.78142619 -0.62355965 0.002829242
0.064353786 0.034249354 1.1143637 -0.030046359 -0.77740973 -0.62827647 0.0030195238
0.075737678 0.033284687 1.1143637 -0.11769063 -0.78545368 -0.60762775 0.0050073434
0.084548257 0.032190174 1.1143334 -0.17170972 -0.78741437 -0.59202576 0.0051265755
0.090221457 0.031841442 1.1145 -0.16818205 -0.78966051 -0.59004331 0.0060390611
-0.13285714 0.04995428 1.1160001 -0.056707177 -0.76799959 -0.63793486 0.0012381886
-0.1238819 0.049009517 1.1160001 -0.060872376 -0.76231331 -0.64433914 0.0019408958
-0.11424652 0.049004897 1.1151429 -0.06529323 -0.77578044 -0.62761581 0.0011186219
-0.10462022 0.048326433 1.1152501 -0.087397635 -0.77616966 -0.62443757 0.0015908793
-0.094493322 0.047775239 1.1148001 -0.083918303 -0.77791089 -0.62274581 0.002055763
-0.085353464 0.046541225 1.1142858 -0.061811518 -0.79044276 -0.60940915 0.0014339992
-0.074496321 0.045666944 1.1151431 -0.049712952 -0.80004698 -0.5978741 0.0017441771
-0.064771429 0.044884685 1.1149092 -0.093042627 -0.79404736 -0.60069281 0.0035200103
-0.055194277 0.044578582 1.1145 -0.11786783 -0.76172429 -0.63708967 0.0044421316
-0.046136256 0.043194741 1.1146154 -0.14233722 -0.73527813 -0.66265082 0.0044642403
-0.035788201 0.042148948 1.1133751 -0.10773487 -0.72361827 -0.68174028 0.0033654808
-0.025086662 0.04134002 1.1130002 -0.064302891 -0.73263663 -0.67757559 0.0033954824
0.006360013 0.04134002 1.113 0.03322522 -0.75044793 -0.66009396 0.010973436
0.01484002 0.04134002 1.113 -0.046889331 -0.78617835 -0.61621827 0.012948035
0.02014002 0.04134002 1.113 -0.098080777 -0.79131722 -0.60348755 0.0031700886
-0.12584427 0.052670009 1.1135 -0.087092258 -0.76029253 -0.64371592 0.0028084239
-0.11766002 0.05194002 1.113 -0.069558889 -0.76651752 -0.63844532 0.0024627869
-0.10494002 0.05194002 1.113 -0.08511088 -0.79868329 -0.59570229 0.0021477682
0.057240017 0.21624002 1.113 -0.92348206 0.19370884 -0.33114615 0.017173558
0.060419992 0.21730003 1.113 -0.92856258 0.15934953 -0.33523014 0.010916593
0.058457177 0.22213715 1.1160001 -0.93257219 0.16321233 -0.32197952 0.017203666
0.061981916 0.2227775 1.1156669 -0.93257219 0.16321233 -0.32197952 0.017203666
0.060485136 0.2345126 1.1142 -0.91565901 0.082151309 -0.39347148 0.0074431458
0.062437158 0.24522051 1.1146364 -0.88239837 -0.073402889 -0.46474203 0.016097266
0.057175953 0.25767148 1.1147144 -0.75510484 -0.31639951 -0.57420206 0.012617808
0.060876567 0.25389943 1.1136001 -0.7726801 -0.26527774 -0.57670885 0.015837364
0.04995428 0.26677716 1.1160001 -0.64009184 -0.25213712 -0.72574747 0.010036755
0.053713281 0.2643252 1.1138183 -0.67325616 -0.21843557 -0.70640779 0.01198114
0.015916748 0.27667594 1.1142858 -0.37739456 -0.74609154 -0.54856241 0.073344551
0.023771454 0.27738228 1.1142 0.12006155 -0.8396548 -0.52968389 0.059643146
0.048891444 0.27528003 1.1160001 -0.57589084 -0.31350484 -0.7550261 0.020527033
0.053117804 0.27571777 1.113 -0.60730612 -0.23181857 -0.75989431 0.020274354
0.013780006 0.28090003 1.113 -0.27343103 -0.78927171 -0.54980505 0.065997869
0.026500013 0.28090006 1.1130002 0.11212952 -0.85673684 -0.50341737 0.043562431
0.035426512 0.28485563 1.1149092 0.1470091 -0.75233662 -0.64216655 0.034417324
0.045545746 0.28484049 1.1148946 -0.27593148 -0.60645992 -0.7456997 0.059626557
0.054060023 0.28196001 1.113 -0.4615207 -0.30784637 -0.83200318 0.035988059
0.14946005 0.29997998 1.113 0.25931737 0.57602119 -0.77521235 0.0056930892
0.15158001 0.29786003 1.113 0.26687273 0.58764678 -0.76383913 0.0084396116
0.12720004 0.30846003 1.113 0.28933087 0.51154941 -0.80907661 0.0062445952
0.13513847 0.30741328 1.1140909 0.27173397 0.5411734 -0.79579645 0.0071562254
0.14496446 0.30444127 1.1146667 0.23291384 0.60362267 -0.76248991 0.0045965728
0.15158001 0.30210003 1.113 0.25931737 0.57602119 -0.77521235 0.0056930892
0.11742447 0.31670448 1.113 0.35738394 0.521065 -0.77509218 0.0047500618
0.12440103 0.31509614 1.1152942 0.32529145 0.49487361 -0.80578256 0.0071574459
0.1317943 0.31141713 1.1160001 0.28504962 0.50532854 -0.81448752 0.0093718637
0.095400013 0.32860002 1.113 0.30388159 0.56113118 -0.76992714 0.0037912277
0.10590231 0.32556006 1.1142 0.26528957 0.58468664 -0.76665699 0.0030958354
0.11436701 0.3232705 1.1153334 0.31855544 0.52675855 -0.78806585 0.005572692
0.12222859 0.32204574 1.1160001 0.28996727 0.47400534 -0.83140719 0.0055847862
0.085726686 0.33618826 1.1143334 0.32831702 0.55225784 -0.76630235 0.0049349116
0.093344919 0.33285022 1.1155716 0.30301797 0.53900063 -0.78591251 0.0061311494
0.10097146 0.33054861 1.1160001 0.29613861 0.54638535 -0.78343159 0.005760042
0.066073351 0.3473267 1.113 0.28155592 0.56227911 -0.77754003 0.0037024289
0.075375117 0.3445788 1.1147144 0.32517722 0.54196733 -0.77493948 0.0038342252
0.081839994 0.3411772 1.1160001 0.34002045 0.52650809 -0.7792145 0.0036648843
0.036676016 0.35891601 1.113 0.34086671 0.48783952 -0.80363077 0.0034469648
0.045954309 0.35580045 1.1147144 0.26999086 0.55713618 -0.7853052 0.0040509412
0.054911457 0.35388705 1.1146364 0.20676398 0.55171394 -0.80799782 0.0022492246
0.062217157 0.35227773 1.1148001 0.23626527 0.54232913 -0.80626166 0.0049399417
0.026924014 0.36824402 1.113 0.37025961 0.45810306 -0.80811477 0.0026446774
0.034643237 0.36498934 1.114875 0.3801074 0.45257401 -0.80665678 0.0050169714
0.043577172 0.36030859 1.1160001 0.31001166 0.47054547 -0.8261233 0.0046030148
0.0031800065 0.37842 1.113 0.28537056 0.54276681 -0.78991634 0.0073032225
0.015375374 0.37695751 1.1133751 0.30011904 0.56084144 -0.77161217 0.0057702628
0.024254527 0.37439647 1.1146154 0.36570993 0.50471616 -0.78199613 0.0033577739
0.031531461 0.37164578 1.1160001 0.37292263 0.48255178 -0.79251027 0.0055353171
-0.01165998 0.38902 1.113 0.29535028 0.52241808 -0.7999047 0.0066260416
-0.0062085693 0.38690001 1.113 0.32416606 0.51746309 -0.79192692 0.0061765825
0.0053083389 0.38344023 1.11475 0.30361962 0.55216038 -0.77648824 0.0079100048
0.013817167 0.38209715 1.1160001 0.32527468 0.55454671 -0.76594663 0.0054846015
-0.023616424 0.39724073 1.1145 0.30516124 0.50031263 -0.81028634 0.0041905898
-0.015167536 0.39454964 1.1149287 0.25291938 0.52593076 -0.81205213 0.0049153455
-0.0053142789 0.39219433 1.1160002 0.29523674 0.5057357 -0.81059653 0.0080391811
0.0010628372 0.39219433 1.1160001 0.3090449 0.51075977 -0.8022567 0.0080654724
-0.025331415 0.4026458 1.1160002 0.2894887 0.4472495 -0.84626478 0.0057199108
-0.018068565 0.40069714 1.1160001 0.28397951 0.47467738 -0.83308887 0.0051589319
-0.034346655 0.028979991 1.127 -0.03650203 -0.80858177 -0.58725053 0.0032853512
-0.023971107 0.028979992 1.1270001 -0.090090148 -0.80099833 -0.59184909 0.0041969498
-0.014304115 0.028247295 1.1263334 -0.083658867 -0.79601508 -0.59946734 0.0020920541
-0.0053559928 0.027845711 1.1246001 0.012622497 -0.80727941 -0.59003431 0.0045765894
0.0046504783 0.028605072 1.1263334 0.064792655 -0.77678657 -0.62642199 0.0036242474
0.015026685 0.028979991 1.127 -0.055170819 -0.75971609 -0.64791024 0.0033258137
0.025115045 0.027968774 1.1247778 -0.11542717 -0.77079731 -0.62653661 0.00323465
0.035870969 0.027303334 1.1243334 -0.065377042 -0.78537279 -0.61556107 0.0021491461
0.044962645 0.026760874 1.1240834 -0.065131389 -0.78678221 -0.61378467 0.0015799388
0.054799017 0.025846722 1.1235788 -0.043517455 -0.77487439 -0.63061553 0.0031228382
0.06545037 0.024783298 1.1235416 -0.061302405 -0.74880546 -0.65994871 0.0035007524
0.07491944 0.024610097 1.1238 -0.08658319 -0.72521865 -0.68305284 0.0023924105
0.083796568 0.025107941 1.1232382 -0.091689862 -0.71537364 -0.69270015 0.0034862191
-0.12343332 0.039713323 1.127 -0.030689295 -0.7249099 -0.6881597 0.0039195856
-0.11269998 0.039713323 1.1270001 -0.072701089 -0.76631266 -0.63834113 0.0013059959
-0.10441078 0.038974278 1.1263334 -0.081939496 -0.75355446 -0.65225887 0.00088426378
-0.095357135 0.038569517 1.125 -0.086227037 -0.75841194 -0.6460467 0.00163133
-0.084626123 0.038680945 1.1247778 -0.039033774 -0.77662885 -0.628748 0.0029842188
-0.074560679 0.038732924 1.1252857 -0.051790427 -0.77505893 -0.62976295 0.0032027967
-0.064756379 0.037335809 1.1244668 -0.11049122 -0.76103705 -0.63922948 0.003946037
-0.054527279 0.035368208 1.122609 -0.17938222 -0.7364375 -0.65228963 0.0031022448
-0.044941559 0.034501694 1.1219412 -0.15686919 -0.74275172 -0.65093166 0.0034525804
-0.035231419 0.033094294 1.1209999 -0.074119188 -0.77277619 -0.63033593 0.0028292181
-0.024564564 0.033107571 1.1214668 -0.091677673 -0.78158873 -0.61702043 0.0025227221
-0.015303162 0.032383189 1.1209999 -0.10857455 -0.79947245 -0.59080917 0.001960149
-0.0053333263 0.030933354 1.12 0.029162174 -0.80294949 -0.59533328 0.005951555
0.0056478991 0.032963276 1.1217144 0.096941322 -0.79221249 -0.60249621 0.0049289805
0.014949306 0.033101678 1.12125 -0.079598553 -0.78408432 -0.61552894 0.0050211283
0.024009546 0.032547154 1.1205001 -0.11842568 -0.78658241 -0.60602278 0.0040196902
0.034744997 0.031899914 1.1206667 -0.089971513 -0.79628015 -0.59819978 0.0036111127
0.044800024 0.030933352 1.12 -0.068433307 -0.79723823 -0.59977341 0.0018107217
0.054400023 0.030933354 1.12 -0.037706476 -0.78626543 -0.61673725 0.0031006411
0.065066688 0.030933354 1.12 -0.045865357 -0.77182609 -0.63417727 0.0026542493
0.073600017 0.030933354 1.1200001 -0.067367598 -0.77435088 -0.62916005 0.00323307
-0.13475373 0.044911731 1.1229376 -0.038500004 -0.74585968 -0.66498959 0.00061833498
-0.12538749 0.044108577 1.122875 -0.04861933 -0.75789565 -0.65056151 0.0017054131
-0.11533393 0.043990828 1.1227858 -0.053882021 -0.7581169 -0.64988875 0.0025436785
-0.10590348 0.043605566 1.1213334 -0.076085217 -0.77025998 -0.63317508 0.0014856161
-0.094933324 0.042666685 1.12 -0.084471941 -0.78012002 -0.619901 0.0018135617
-0.085333332 0.042666681 1.12 -0.03474471 -0.8078686 -0.5883376 0.0010553519
-0.076207392 0.042548165 1.12 -0.058078822 -0.81702793 -0.57366556 0.00097787508
-0.065066658 0.041600019 1.12 -0.11917637 -0.8014791 -0.58602738 0.00399409
-0.055466659 0.041600019 1.12 -0.15270934 -0.7738356 -0.61470175 0.0064715133
0.055539548 0.21895954 1.1215 -0.92749465 0.16393545 -0.33597434 0.014153984
0.055698186 0.22487837 1.1233335 -0.9251833 0.10557635 -0.3645401 0.0091041131
0.057349551 0.2345127 1.1221111 -0.89858365 0.065932833 -0.43382043 0.0052992008
0.0564164 0.24506734 1.1230625 -0.82256323 -0.25045201 -0.51055223 0.016963169
0.06079999 0.24640003 1.12 -0.85685194 -0.18691473 -0.4804869 0.021917457
0.047307637 0.25766438 1.1252857 -0.67499632 -0.441138 -0.59141964 0.0093577467
0.053857543 0.25455335 1.1221 -0.72249532 -0.44096226 -0.53249675 0.0048747961
0.015622325 0.26569349 1.1255715 0.076525837 -0.63794768 -0.76626796 0.061316479
0.021252029 0.26768932 1.127 0.03331349 -0.64939791 -0.75971878 0.047976334
0.039713323 0.26940671 1.127 -0.43719009 -0.45333636 -0.7767567 0.048638206
0.044908267 0.26520273 1.1228501 -0.65311843 -0.39093503 -0.64854157 0.011234878
0.050844442 0.26204446 1.1200001 -0.68026721 -0.37842456 -0.6277191 0.0089598773
0.0096257338 0.27914575 1.123 -0.41961402 -0.71539992 -0.55868328 0.086133629
0.014450436 0.2734296 1.1212001 -0.28135446 -0.78802496 -0.54759139 0.069807693
0.024970971 0.2740629 1.1236111 0.08026731 -0.73827136 -0.66971087 0.05285399
0.036372904 0.27549344 1.1251053 -0.15940535 -0.65077704 -0.742347 0.076846518
0.043629143 0.27475202 1.1212858 -0.44561464 -0.47001818 -0.76191235 0.049911715
0.0096257338 0.28128475 1.123 -0.41961402 -0.71539992 -0.55868328 0.086133629
0.011749094 0.28197572 1.1215 -0.42209491 -0.75618112 -0.50002605 0.079660974
0.035444625 0.28178495 1.1221668 0.054876167 -0.77987349 -0.62352699 0.06184214
0.04320002 0.28106666 1.12 -0.31081113 -0.59278262 -0.74297053 0.054579429
0.14719999 0.30826667 1.12 0.25193158 0.57642752 -0.7773428 0.0080853924
0.1514667 0.30719998 1.12 0.25770554 0.5722611 -0.77852756 0.0086001977
0.12906671 0.31786665 1.12 0.29129729 0.44441697 -0.84713602 0.0035438146
0.13537942 0.3159731 1.120375 0.30245003 0.49486884 -0.81463414 0.0074003255
0.1445788 0.31512484 1.122 0.25109974 0.54488409 -0.80003142 0.0080773691
0.15295985 0.31516829 1.1245455 0.22728254 0.54634356 -0.80613363 0.0068757371
0.10880002 0.32960001 1.12 0.24347052 0.49566457 -0.83368987 0.0046318192
0.11555558 0.32853332 1.12 0.2862815 0.47648644 -0.83126628 0.0056600398
0.12576328 0.3253063 1.1204286 0.26913992 0.47066981 -0.840258 0.0054787151
0.13443664 0.32465303 1.1220667 0.31065953 0.4712812 -0.82546031 0.0063007157
0.14362554 0.32368648 1.1253999 0.31123781 0.46385548 -0.82943904 0.0050191204
0.096426681 0.33642668 1.12 0.26651704 0.49364695 -0.8278172 0.0066904603
0.10541592 0.33508331 1.1207057 0.26003537 0.46209726 -0.84784889 0.0060568941
0.11469071 0.33539012 1.123 0.24789792 0.51030546 -0.82348949 0.0062361145
0.1245461 0.33362055 1.1253999 0.26256785 0.49995705 -0.82528847 0.0057532988
0.13278496 0.33314192 1.1262 0.30117363 0.49090201 -0.81750208 0.0044305548
0.075733341 0.34826663 1.12 0.31034198 0.50880408 -0.80299836 0.0039781774
0.085135512 0.34587398 1.1205002 0.30315754 0.50343537 -0.80910337 0.0051723751
0.095073879 0.3444562 1.1216364 0.21736912 0.47426242 -0.85312706 0.0041453512
0.1048605 0.34454143 1.1235 0.24881731 0.45806938 -0.85338289 0.0040069828
0.11331683 0.34387779 1.1259999 0.285586 0.43388918 -0.85450619 0.0031306623
0.057066694 0.35893333 1.12 0.19759615 0.49631 -0.84535921 0.0029115046
0.065573283 0.35675058 1.1202308 0.26753905 0.51706922 -0.81305736 0.0051096692
0.074513718 0.35531265 1.1213846 0.30850738 0.50244963 -0.80769277 0.0056237411
0.084228016 0.35498232 1.1244706 0.25121409 0.50855166 -0.82356954 0.00290523
0.095526688 0.35291201 1.127 0.21396299 0.48922884 -0.84550285 0.0032287398
0.10368401 0.35183862 1.127 0.24630421 0.47518563 -0.84470868 0.0044732601
0.039466657 0.368 1.12 0.32509679 0.44850272 -0.83256066 0.0032861826
0.045056071 0.3656143 1.1202308 0.30937552 0.44310042 -0.84139693 0.003641489
0.054474592 0.36529082 1.1215003 0.19122717 0.47415134 -0.85942572 0.0037302312
0.065261446 0.36501995 1.1233001 0.2556234 0.51332641 -0.81923908 0.0044650408
0.074380003 0.36350918 1.1259091 0.2835038 0.48887464 -0.82500124 0.0042266822
0.080500029 0.36171329 1.127 0.30519077 0.46902478 -0.8287788 0.0027086362
0.026666677 0.3786667 1.1200001 0.32175633 0.52418697 -0.78848016 0.004034956
0.036114052 0.37545851 1.1204739 0.31171939 0.48413733 -0.81758302 0.0050602737
0.04467918 0.37489212 1.1228889 0.30453247 0.48481527 -0.81988662 0.0046199742
0.053737294 0.37417957 1.1252857 0.24949163 0.49111554 -0.8346014 0.0054252134
0.065000586 0.37175295 1.1262001 0.24415083 0.50473046 -0.82803237 0.0025840357
0.0067555732 0.38862222 1.12 0.31986821 0.53635979 -0.78102654 0.0054407637
0.015478112 0.38612598 1.12075 0.30445239 0.56836462 -0.76437587 0.0044687744
0.024626208 0.3854315 1.1241667 0.2746287 0.56550455 -0.77767837 0.00095845299
0.034652088 0.38440225 1.1253333 0.28275654 0.52530432 -0.80256104 0.004010282
0.045080021 0.38210663 1.127 0.30113733 0.4875454 -0.81952167 0.0044729216
-0.0049777734 0.39751109 1.12 0.29343376 0.47015873 -0.83237451 0.0068333559
0.0058021192 0.39488932 1.1219286 0.36571768 0.49038973 -0.79105532 0.0063393298
0.014291132 0.39369044 1.1253333 0.34081966 0.52945948 -0.77686203 0.0044607045
0.021466698 0.39284 1.127 0.27344105 0.5219087 -0.8079859 0.0039042721
-0.023199998 0.40719998 1.12 0.24161513 0.455053 -0.85705835 0.0056582806
-0.014494103 0.40489411 1.12 0.26214787 0.42747715 -0.86518312 0.0024981364
-0.0056195785 0.40463623 1.1220433 0.29305747 0.46145254 -0.8373642 0.0064006443
0.0039347094 0.40289727 1.1261111 0.38361338 0.4562431 -0.80292159 0.0057609822
-0.024550755 0.41420063 1.1209 0.19687667 0.49379751 -0.84699678 0.0048536756
-0.015301755 0.41515249 1.1247144 0.21303107 0.51394051 -0.83095306 0.0037083146
-0.0053598904 0.41290742 1.126111 0.31629887 0.47347167 -0.82205814 0.0073572327
0.0010733131 0.41108665 1.127 0.36870858 0.44341072 -0.81697059 0.0052570533
-0.014089508 0.018424755 1.138 -0.13363419 -0.80221474 -0.58188778 0.004565083
-0.005419041 0.018424755 1.138 0.020453978 -0.80656618 -0.59078991 0.0067163785
0.0061415844 0.018424755 1.138 -0.034579679 -0.78897732 -0.61344856 0.0067574382
0.016257156 0.018424755 1.138 -0.11517204 -0.77380687 -0.62286305 0.0071297619
0.02591292 0.016848309 1.1380001 -0.076296955 -0.75982976 -0.64562953 0.0060985368
0.034236599 0.016684188 1.1376002 -0.020707212 -0.76536381 -0.64326465 0.0030802924
0.044917908 0.017461371 1.1380001 -0.037636954 -0.79631573 -0.6037091 0.0022159202
0.055497982 0.016385304 1.1362858 -0.10562279 -0.80794537 -0.57971388 0.0019157507
0.06481906 0.016200319 1.1343335 -0.12110683 -0.79865009 -0.5894838 0.0024949366
0.074724831 0.01528251 1.1336844 -0.0948046 -0.78220755 -0.61576247 0.0048269886
0.082240723 0.015906431 1.1324999 -0.11747707 -0.7530266 -0.64741802 0.0064605228
-0.13454713 0.028424278 1.137 -0.012927189 -0.78031242 -0.6252563 0.009499046
-0.12629458 0.028506026 1.1366667 0.028970616 -0.7829845 -0.62136626 0.0059931842
-0.10339542 0.028829325 1.138 -0.08960972 -0.77983809 -0.61953425 0.0025233012
-0.094197802 0.027994826 1.1368572 -0.056246839 -0.79433012 -0.60487676 0.0036090438
-0.085499555 0.0270546 1.1364001 0.00036422926 -0.80371422 -0.59501553 0.0045746234
-0.075327225 0.027921138 1.1364 -0.065357134 -0.78620034 -0.61450589 0.0066417516
-0.064661607 0.026709525 1.1359231 -0.19370656 -0.7691744 -0.60897332 0.0027664159
-0.05518565 0.026476193 1.1335294 -0.13731951 -0.77392423 -0.61821079 0.0021905934
-0.044757873 0.025433227 1.1340004 -0.093653217 -0.80130339 -0.59088242 0.0018422189
-0.035419941 0.024272388 1.1343161 -0.035512205 -0.82086456 -0.57001781 0.0016415644
-0.024851372 0.024629293 1.1345502 -0.079016134 -0.81447482 -0.57479322 0.0030220682
-0.015421753 0.023282731 1.1334286 -0.1417181 -0.8067323 -0.57367146 0.0018225368
-0.0053952313 0.022658108 1.1330001 -0.0056639486 -0.80078751 -0.59892172 0.0051233014
0.005633241 0.023603065 1.134895 0.048708044 -0.80485326 -0.59147161 0.0035557121
0.015126449 0.023765244 1.1345 -0.08871831 -0.78143084 -0.61765265 0.004114836
0.024554007 0.022933641 1.1333126 -0.10533689 -0.74261963 -0.66137755 0.0032754731
0.035098482 0.022318695 1.1326154 -0.036298335 -0.76239848 -0.64608896 0.0029667346
0.045300025 0.021570016 1.1324999 -0.056787092 -0.7863425 -0.61517531 0.0028639224
0.054238588 0.020833828 1.1315 -0.091779485 -0.78703356 -0.6100449 0.0029218784
0.061397135 0.020465733 1.131 -0.073865898 -0.78189939 -0.61901301 0.0038453569
-0.13485397 0.035596386 1.1327602 -0.010410767 -0.72800285 -0.68549496 0.007113168
-0.12512751 0.035350379 1.1321054 0.0093179643 -0.73952395 -0.67306572 0.0045651132
-0.11575596 0.035016496 1.1330457 -0.029067241 -0.75105119 -0.65960383 0.0032265519
-0.1050327 0.033950038 1.1328236 -0.090059631 -0.76513147 -0.63754451 0.0012386426
-0.094944112 0.03344303 1.1328334 -0.076687224 -0.76504475 -0.63939464 0.0017157778
-0.085164808 0.033686616 1.1319376 -0.020809172 -0.77497262 -0.63165212 0.0029510257
-0.074653745 0.033686616 1.1319376 -0.053700093 -0.76631415 -0.6402179 0.003088719
-0.065140821 0.032184102 1.1318572 -0.14556901 -0.75809813 -0.63568622 0.003510749
-0.059242822 0.031237163 1.131 -0.15702096 -0.74867517 -0.64407289 0.0031392865
0.051399283 0.22670645 1.13625 -0.90038741 -0.010808845 -0.43495473 0.006699082
0.04804891 0.23699304 1.138 -0.74353683 -0.34925723 -0.57023889 0.033472814
0.05262294 0.23503205 1.1348462 -0.87288153 -0.095852077 -0.47842479 0.0075226831
0.018424755 0.24710856 1.138 0.034589592 -0.59374028 -0.803913 0.046905849
0.020592401 0.24819238 1.138 0.034589592 -0.59374028 -0.803913 0.046905849
0.03359814 0.24819238 1.138 -0.15982376 -0.55162382 -0.81863761 0.052801233
0.047163833 0.24566841 1.1372728 -0.68640065 -0.39599401 -0.60995317 0.030170754
0.052063238 0.2443383 1.1342 -0.73438287 -0.31832767 -0.5994575 0.030296586
0.016237054 0.25673684 1.1365 0.0018668597 -0.57440698 -0.81856769 0.038314294
0.024910947 0.25534761 1.1372383 0.088727705 -0.53911257 -0.837547 0.02776259
0.034894411 0.25545675 1.1371113 -0.157148 -0.58213043 -0.79776478 0.045418493
0.043993779 0.25457013 1.1350502 -0.53466159 -0.52866 -0.65928417 0.033110298
0.050625708 0.25205144 1.131 -0.62724417 -0.45740145 -0.63035601 0.019119218
0.015459548 0.26101288 1.1324999 0.30718693 -0.55780184 -0.77103394 0.023206992
0.025297293 0.26375648 1.1325003 0.11851199 -0.5430364 -0.83130401 0.023581911
0.035592936 0.26426145 1.1325601 -0.31169438 -0.54477924 -0.77849996 0.036261059
0.027467148 0.27090144 1.131 0.14309292 -0.63852507 -0.75618118 0.027570842
0.033132527 0.27233753 1.1313751 -0.039023157 -0.53322548 -0.84507269 0.042619836
0.14763382 0.32651958 1.1315 0.3490749 0.48225746 -0.80347645 0.0036002928
0.15451601 0.3257724 1.1314002 0.34344125 0.49951842 -0.79531723 0.0028795558
0.12746191 0.33858192 1.131 0.29607785 0.47969198 -0.82597435 0.0034331323
0.13575074 0.33614311 1.1312501 0.31539914 0.50811601 -0.80146211 0.0042538913
0.14477025 0.33491346 1.134375 0.3298392 0.52605116 -0.78388536 0.0038622268
0.15390055 0.33471724 1.1373848 0.31891721 0.4952659 -0.80808634 0.003536447
0.1185386 0.34591669 1.1315 0.3026014 0.46041217 -0.83453768 0.0035110253
0.12519822 0.34537315 1.13325 0.30379599 0.44669965 -0.84152687 0.0028336814
0.13531502 0.34430212 1.1355 0.3194693 0.47608894 -0.81931597 0.0050391038
0.14442478 0.34192258 1.1373334 0.33130863 0.49081457 -0.80581361 0.0044771205
0.095287375 0.35790125 1.1314286 0.20733763 0.48620853 -0.84888887 0.0030932764
0.10592764 0.35734576 1.1329999 0.24773379 0.49744514 -0.83137012 0.005046566
0.1155224 0.35412091 1.1336113 0.30202219 0.47951806 -0.82392049 0.0051061339
0.12507144 0.35517904 1.1370002 0.30169579 0.47520432 -0.82653522 0.0051982952
0.13330859 0.35223812 1.1380001 0.35338521 0.4507677 -0.81971174 0.0043164571
0.07647717 0.36838287 1.131 0.29143754 0.49605247 -0.81792182 0.0033269145
0.085862026 0.36508885 1.1327647 0.24623792 0.47583979 -0.8443597 0.0035808487
0.095110543 0.36530402 1.1348126 0.24113917 0.48921877 -0.83816284 0.0034865071
0.10434207 0.36535454 1.136353 0.2304768 0.48771909 -0.84202766 0.0036261515
0.11407097 0.36226332 1.138 0.29906073 0.50450188 -0.80996329 0.0042268899
0.1224705 0.3609086 1.138 0.28938049 0.50608581 -0.8124876 0.0050864988
0.057088599 0.37807721 1.131 0.26527083 0.54196179 -0.79743892 0.0037275383
0.064779654 0.37787539 1.1336249 0.26503193 0.54367721 -0.79634982 0.0027274757
0.074393086 0.37494671 1.1338335 0.28508094 0.52479112 -0.80207431 0.0037310515
0.085298561 0.37441394 1.136737 0.21768206 0.52149904 -0.82501715 0.0048560021
0.094656132 0.37379551 1.1376365 0.23800136 0.49170011 -0.8376075 0.0068421555
0.10151684 0.37246919 1.138 0.24263424 0.45936629 -0.85446543 0.0026583709
0.038418092 0.38813052 1.131 0.27990261 0.49767748 -0.82095778 0.0033012899
0.045439705 0.38761941 1.133 0.31206459 0.50242406 -0.80634093 0.0029065786
0.055487156 0.38516578 1.1349446 0.26132032 0.55669856 -0.78854197 0.0021900397
0.064929292 0.3852464 1.13625 0.24923402 0.55793875 -0.79157233 0.0023981007
0.073891066 0.38266706 1.1376002 0.25184968 0.54560393 -0.79930472 0.0034385761
0.081285745 0.38041717 1.138 0.23353232 0.50778133 -0.82922906 0.0040690862
0.017234299 0.39854288 1.131 0.27465901 0.48208153 -0.83196145 0.0031080218
0.025780015 0.39580503 1.1314617 0.24328227 0.4854961 -0.8397066 0.0015438667
0.035359573 0.39450654 1.1322632 0.25034037 0.49178934 -0.83395016 0.0030465454
0.045065258 0.39569926 1.1367501 0.32147929 0.48590124 -0.81274295 0.003631704
0.053106681 0.39249393 1.138 0.3231912 0.51415551 -0.79447567 0.0042278352
0.0069008693 0.406838 1.1319001 0.36957356 0.43945581 -0.81871486 0.004243582
0.015117817 0.40596953 1.1336874 0.32450545 0.46882221 -0.82152414 0.00677271
0.025106283 0.40469366 1.1356843 0.23295499 0.49465778 -0.83728468 0.0039141886
0.034641292 0.40378976 1.1366667 0.24921107 0.47982848 -0.84122443 0.0032425623
0.041835062 0.40296036 1.138 0.32007921 0.48347783 -0.81473827 0.0049938289
-0.0045778472 0.41820067 1.131 0.34552228 0.49512306 -0.79716212 0.0090037063
0.0058876812 0.41526756 1.1348333 0.37664461 0.43729195 -0.81664848 0.0086565241
0.01515748 0.41461462 1.1366667 0.36639461 0.42495009 -0.8277514 0.0065351408
0.021892974 0.41206437 1.138 0.26654327 0.44924387 -0.85272193 0.004194323
-0.014806518 0.4258233 1.1335714 0.24011967 0.60333204 -0.76048207 0
0.0015157945 0.42360875 1.1364 0.34328136 0.52739066 -0.77718532 0.014315558
0.026888905 0.0090838205 1.1446667 -0.067929782 -0.75886208 -0.64769894 0.0076528499
0.03492574 0.0098228771 1.146 0.018067196 -0.74043548 -0.6718846 0.001583244
0.049114317 0.0098228771 1.146 -0.024641629 -0.75875843 -0.65090579 0.0026137196
0.054571442 0.0098228771 1.146 -0.075706527 -0.75573367 -0.65048844 0.0048311017
0.06439431 0.0098228771 1.146 -0.1402047 -0.75303501 -0.64286929 0.0058629378
0.07371071 0.0066541829 1.1437777 -0.18084958 -0.73769611 -0.65045971 0.0052574496
-0.062575221 0.017826661 1.146 -0.14591686 -0.74611008 -0.64963681 0.0046267444
-0.054571427 0.017462853 1.146 -0.099393576 -0.74756658 -0.65670776 0.0021801102
-0.044707421 0.016354157 1.1449333 -0.01528925 -0.77037638 -0.63740617 0.0038032404
-0.034864753 0.017430471 1.1439999 -0.032357007 -0.77634072 -0.62948245 0.0041175489
-0.024520628 0.016890157 1.1443334 -0.09278702 -0.79342544 -0.60155362 0.0049181739
-0.015247924 0.014701592 1.1436667 -0.12735185 -0.77389258 -0.62038034 0.00410141
-0.0052944147 0.014324087 1.1445715 -0.01419162 -0.78132206 -0.62396669 0.0076903873
0.0050838161 0.015613969 1.1440001 -0.012925082 -0.76861805 -0.63957727 0.0095301177
0.01525221 0.015251431 1.1440001 -0.14445125 -0.7365185 -0.66081333 0.0069178222
0.023814835 0.013176941 1.1424445 -0.12039256 -0.74742371 -0.65334791 0.0054763486
0.035528913 0.012688899 1.1420001 0.010124349 -0.74661618 -0.665178 0.002821584
0.044267893 0.01336711 1.1438183 -0.0015307305 -0.75720894 -0.65317082 0.0025274956
0.054836839 0.012347314 1.1440001 -0.085721746 -0.77480137 -0.62636626 0.0039929561
0.065257154 0.011963822 1.142 -0.13325073 -0.76830429 -0.6260612 0.0045473543
0.070695266 0.011963822 1.142 -0.1581088 -0.76990378 -0.61826348 0.0047875922
-0.13527666 0.024545247 1.1454999 -0.092220932 -0.77584165 -0.62415141 0.0077415067
-0.12454802 0.025062593 1.1442858 -0.0086105494 -0.76034379 -0.64946377 0.0064837565
-0.11479528 0.025525717 1.1445264 -0.017440857 -0.74726647 -0.66429549 0.0048793713
-0.10543741 0.024288522 1.1441177 -0.043689448 -0.75999671 -0.64845681 0.003184973
-0.095976107 0.02355122 1.144154 -0.024564199 -0.7954883 -0.60547084 0.0053520906
-0.085808873 0.022179063 1.1453333 -0.036751829 -0.8224799 -0.56760561 0.0042204675
-0.074524559 0.024185151 1.1440001 -0.11764018 -0.77363938 -0.62260985 0.0076518157
-0.065857142 0.021639474 1.1442858 -0.15910566 -0.74473411 -0.64811766 0.003938606
-0.055196654 0.021480491 1.1420001 -0.14710647 -0.74504375 -0.65059167 0.0026067141
-0.045679986 0.020664779 1.142 -0.028309602 -0.77365518 -0.63297409 0.0052212882
-0.026102841 0.020664779 1.142 -0.078606553 -0.80718255 -0.58504474 0.0035886914
0.047434852 0.22722805 1.1431429 -0.82210803 -0.17083745 -0.54309571 0.0060339775
0.018554278 0.23902287 1.146 0.16419218 -0.82100648 -0.5467993 0.076577038
0.020737162 0.23902287 1.146 0.14769933 -0.82194299 -0.55008596 0.064447977
0.045627754 0.23492888 1.1437777 -0.72187722 -0.41090006 -0.55682522 0.041884795
0.016321491 0.24553291 1.1424445 0.031595465 -0.68031567 -0.73223782 0.059372135
0.0244487 0.24557525 1.1437778 0.091211937 -0.8141486 -0.57344794 0.058489434
0.034865927 0.24731962 1.1440001 -0.13789095 -0.78816992 -0.59981185 0.085329339
0.042295896 0.24488825 1.1436667 -0.54168242 -0.5484857 -0.63698012 0.060220879
0.016325733 0.25272116 1.1428 0.03464542 -0.59378821 -0.80387509 0.046885688
0.025015261 0.25124002 1.142 0.071352132 -0.60619348 -0.79211003 0.031609174
0.035166368 0.25124002 1.142 -0.18365565 -0.56275403 -0.80596435 0.057424329
0.041329525 0.25124002 1.142 -0.37990981 -0.60291624 -0.70154148 0.041585002
0.15842983 0.33752447 1.142 0.29963365 0.48129943 -0.82375395 0.0056313612
0.14525186 0.34746224 1.1428889 0.36110774 0.47409213 -0.80301797 0.0027426141
0.15491216 0.3444702 1.1438668 0.29998177 0.50862318 -0.80703992 0.0046659429
0.1367581 0.35658538 1.1426667 0.34977832 0.49961996 -0.79248661 0.0050138189
0.14352782 0.35400715 1.1456363 0.35002562 0.48195162 -0.80324626 0.0049247607
0.15498288 0.35034862 1.146 0.32911882 0.47500774 -0.81611794 0.0041293455
0.10984956 0.36870283 1.142 0.30679399 0.50802898 -0.80485028 0.0043376992
0.11610334 0.36734331 1.1420001 0.31113261 0.51765704 -0.79701173 0.0034299137
0.12525876 0.36506796 1.1436667 0.29092148 0.54903978 -0.78353047 0.0042202142
0.13440239 0.3623119 1.145 0.36165699 0.50586939 -0.78313506 0.0054683089
0.096073031 0.37885398 1.1420001 0.2429129 0.53422183 -0.80969149 0.0051032701
0.10599603 0.37519291 1.143091 0.276916 0.52619499 -0.80401266 0.0032135146
0.11344256 0.37450731 1.1453333 0.32579231 0.53581583 -0.77894855 0.0031151015
0.12114862 0.37217718 1.146 0.31247547 0.53847694 -0.78256094 0.0031300122
0.077085249 0.3875995 1.1440001 0.25403664 0.5607751 -0.78803337 0.002441386
0.08526703 0.38474131 1.1438183 0.25012466 0.57499534 -0.77898526 0.00088977977
0.093927361 0.38333309 1.1448572 0.21881877 0.60523182 -0.76538408 0.0018195192
0.10499543 0.38134515 1.146 0.28396413 0.56387198 -0.77550811 0.0026720224
0.055951972 0.39625588 1.1420001 0.32235947 0.53108591 -0.783602 0.0044969795
0.064683832 0.39572954 1.1446667 0.24798489 0.5540787 -0.79466987 0.0019978958
0.073919497 0.39380729 1.146 0.25463077 0.55248171 -0.79367948 0.0031904767
0.046266057 0.40585718 1.1430001 0.36295632 0.51549995 -0.77622318 0.003287479
0.05348001 0.40336087 1.1460001 0.37304908 0.51784438 -0.76985168 0.0026027113
0.060028605 0.40055427 1.146 0.27850425 0.54061019 -0.79383624 0.0034724462
0.025696402 0.41547236 1.1432 0.27014804 0.51384485 -0.81423795 0.003483596
0.035223093 0.41212502 1.1437778 0.25329182 0.58350855 -0.77159643 0.0024242429
0.04251875 0.41098982 1.1446667 0.34852737 0.58292365 -0.73398137 0.0052490314
0.045178138 -0.0011018839 1.1569999 -0.070338473 -0.74804074 -0.65991473 0.0032915052
0.055095248 -0.0011018839 1.1569999 -0.11262327 -0.73226249 -0.67164552 0.0042639696
0.064920977 -0.0022022787 1.1553999 -0.12539285 -0.73244756 -0.66917646 0.0045803301
0.071500033 -0.0022018978 1.155 -0.19005214 -0.7042954 -0.68399429 0.0052324906
-0.073827602 0.0099171624 1.1569999 -0.23946847 -0.64915121 -0.7219817 0.0080139274
-0.063764751 0.0086890031 1.1565554 -0.1778599 -0.66418248 -0.72610432 0.0086400053
-0.055326492 0.0079012159 1.1555455 -0.08208026 -0.71198165 -0.69738424 0.005299848
-0.045701351 0.0076917061 1.1542857 -0.012194376 -0.73971975 -0.67280447 0.004029965
-0.035199989 0.0087981019 1.155 0.012994322 -0.74802071 -0.66354805 0.0027629773
-0.024886314 0.0084920404 1.1542727 -0.12313202 -0.73762137 -0.66389257 0.0039002004
-0.015156494 0.0068034977 1.1531332 -0.15904799 -0.73249656 -0.66193086 0.004814439
-0.0054892502 0.0054814145 1.1525197 -0.020428026 -0.7376802 -0.67484117 0.0072607342
0.0052825902 0.0063229529 1.1530951 -0.0061370474 -0.73401791 -0.67910248 0.0085729593
0.015375688 0.0054856734 1.1532499 -0.12657246 -0.74911779 -0.6502322 0.0055569452
0.024674555 0.0043280749 1.1527892 -0.10417819 -0.77455682 -0.62386596 0.0045634303
0.035135973 0.0043865503 1.1528748 -0.013642304 -0.78013819 -0.62545854 0.0028897214
0.044821486 0.0052996483 1.1525415 0.00075797993 -0.76335013 -0.64598459 0.0036116675
0.054868344 0.004384527 1.1522499 -0.095592976 -0.74145353 -0.66416013 0.0043069297
0.064703345 0.0043838131 1.1515 -0.13618422 -0.72787809 -0.67204714 0.0037949469
0.072681762 0.0025560409 1.1505001 -0.16613036 -0.69912201 -0.69543445 0.0049716164
-0.13407324 0.016492309 1.1546153 -0.11542816 -0.73837221 -0.6644417 0.0042741196
-0.12487221 0.01517541 1.1531174 -0.062243555 -0.73610467 -0.67399979 0.0059194602
-0.11513267 0.015728464 1.1525555 -0.015382409 -0.72242683 -0.69127625 0.0067377971
-0.10515166 0.015369407 1.1531248 0.011802088 -0.7258054 -0.68779886 0.009867073
-0.09557566 0.016475491 1.1535332 0.062871419 -0.74814707 -0.66054749 0.0084591033
-0.084879451 0.016658776 1.1552856 -0.061627813 -0.74334389 -0.66606444 0.012985542
-0.074442968 0.015585973 1.1528666 -0.18594219 -0.7247777 -0.66341758 0.0081124762
-0.065491557 0.014254973 1.1515715 -0.19775134 -0.71514612 -0.67041808 0.0041826447
-0.054799043 0.013150724 1.15075 -0.090662599 -0.73472774 -0.67227638 0.003462021
-0.04490475 0.012047633 1.15 -0.012673184 -0.75317919 -0.65769333 0.0031664753
-0.035093322 0.01315858 1.1515 -0.0053748726 -0.76227343 -0.64723289 0.0023580624
-0.026030466 0.012876915 1.15075 -0.066558376 -0.78430754 -0.61679137 0.0054159095
-0.01861904 0.012047632 1.15 -0.12427713 -0.76754129 -0.62883669 0.0046903114
-0.0076666591 0.012047632 1.15 -0.051448714 -0.78344727 -0.61932492 0.0073789805
0.0059142979 0.012485727 1.15 -0.030040152 -0.77049136 -0.63674217 0.0084044915
0.014238125 0.012047632 1.15 -0.15966739 -0.74347901 -0.64941925 0.0069793295
-0.1355049 0.021183668 1.1505001 -0.042707443 -0.82912421 -0.55743074 0.008282125
-0.12485712 0.020809542 1.15 -0.014843909 -0.80734688 -0.58989042 0.0085322242
-0.11554761 0.02135716 1.15 -0.016854605 -0.79134917 -0.61113214 0.0058208201
-0.094190486 0.020809542 1.15 0.020544298 -0.8312608 -0.55550283 0.0040192511
-0.083238065 0.020809542 1.15 -0.073551193 -0.82065034 -0.56667739 0.0079051899
-0.075571418 0.020809544 1.15 -0.15610817 -0.79511607 -0.58602107 0.008677301
0.042363059 0.22850399 1.1524 -0.80574763 -0.21618113 -0.55139494 0.0079783453
0.024542449 0.23710987 1.1569998 -1.7280987e-05 -0.86804032 -0.49649367 0.085561864
0.037424784 0.23446 1.1557999 -0.56397367 -0.64105058 -0.52056497 0.12142622
0.041891526 0.23490489 1.1515 -0.72645295 -0.34823927 -0.59244871 0.035886578
0.015333353 0.24314287 1.15 0.62923664 -0.48531252 -0.60706919 0.07634297
0.02693462 0.24315047 1.1517777 0.028023852 -0.7998324 -0.59956896 0.057993725
0.035587292 0.24313013 1.1513636 -0.30852517 -0.73660028 -0.6018573 0.092166007
0.040523801 0.24204765 1.15 -0.54710752 -0.58560467 -0.59811419 0.054123159
0.14730954 0.3565 1.15 0.3511982 0.47774592 -0.80524445 0.0039069429
0.15462954 0.35560179 1.1505291 0.31061259 0.46150544 -0.83098298 0.0092152581
0.12814283 0.36909521 1.15 0.29903951 0.54145628 -0.78574842 0.0028062109
0.13553572 0.36772621 1.15 0.34492519 0.5245468 -0.77838117 0.0047613806
0.14494325 0.36421946 1.1511999 0.31051397 0.49392596 -0.8121689 0.0048455261
0.15367469 0.36401036 1.1537142 0.39390182 0.526375 -0.75350565 0.0085201729
0.1177381 0.3773095 1.15 0.32055968 0.53170943 -0.78391743 0.0032752319
0.12517516 0.37479815 1.15125 0.29544288 0.55913007 -0.77465284 0.0032114319
0.13540828 0.37436044 1.1535624 0.31121251 0.56439978 -0.76459122 0.002396161
0.14442976 0.37262717 1.1556666 0.35714284 0.53120333 -0.76829159 0.0056283707
0.096107155 0.38798812 1.15 0.22638974 0.62352735 -0.74830562 0.0016383801
0.10514304 0.38718706 1.1510909 0.26598161 0.60932946 -0.74697489 0.0030732399
0.11565085 0.38440201 1.1523749 0.31892967 0.55650043 -0.76719689 0.0027257241
0.12447681 0.38384351 1.1566362 0.3196938 0.55785155 -0.76589662 0.0034940147
0.13222858 0.38015714 1.1569999 0.32531083 0.55555397 -0.76520109 0.0042977738
0.068999998 0.39976192 1.15 0.24550784 0.50604534 -0.82682765 0.0024373506
0.077275142 0.39805821 1.15 0.25962231 0.50536048 -0.82292593 0.0038112854
0.085532874 0.39475963 1.1513749 0.28816715 0.54177451 -0.78958219 0.0042303121
0.094709933 0.39422226 1.1540833 0.27879083 0.59653133 -0.75261283 0.0036239093
0.10328782 0.39398947 1.1562001 0.2336143 0.64876688 -0.72424155 0.00031366205
0.11129241 0.39117619 1.1569999 0.27942008 0.62445092 -0.72937334 0.0023266128
0.056504648 0.40679851 1.1504285 0.33950654 0.49799079 -0.79796016 0.0055842469
0.064580128 0.4056063 1.1515881 0.2252842 0.53770858 -0.81247544 0.0036219042
0.074448653 0.40605384 1.1529334 0.2297888 0.51049572 -0.82860798 0.0052184421
0.082483284 0.4043569 1.1547778 0.30599365 0.51423925 -0.80120277 0.0064105466
-0.012246668 -0.010019986 1.169 -0.1200207 -0.70934868 -0.69456422 0.013468162
-0.0018555438 -0.011504426 1.169 -0.0026052732 -0.72388417 -0.68991667 0.015738718
0.0011133124 -0.012246645 1.169 0.051970098 -0.72088927 -0.69109899 0.014699239
0.01002002 -0.010019986 1.169 0.067517951 -0.7412867 -0.66778398 0.014471981
0.025606697 -0.010019986 1.169 -0.073774435 -0.79346961 -0.60412192 0.0076990137
0.035070017 -0.010019986 1.169 -0.0059698969 -0.80670452 -0.59092498 0.0041095172
0.055945016 -0.011133321 1.169 -0.20585394 -0.74793595 -0.63104349 0.0081587993
-0.12246666 -0.0011133124 1.169 -0.17391405 -0.7447207 -0.64431745 0.01558069
-0.11345999 -0.00111236 1.168 -0.099940769 -0.63101852 -0.76930326 0.016063066
-0.10407604 -0.0020665217 1.1678572 -0.017339855 -0.59831446 -0.80107367 0.012353049
-0.094827846 -0.0019473705 1.168 0.10208216 -0.68755913 -0.71891707 0.021044515
-0.073387124 -0.0036140403 1.1675 -0.25092861 -0.67954779 -0.68938339 0.015379596
-0.065200828 -0.0039812266 1.1650001 -0.10169029 -0.69514042 -0.71164519 0.012072418
-0.055267483 -0.0038144174 1.1672857 -0.0010996062 -0.71152985 -0.70265496 0.0053497632
-0.045227613 -0.0031763215 1.1664284 0.049400017 -0.73578179 -0.67541444 0.0035513276
-0.035467606 -0.00293203 1.1671817 0.016411709 -0.75057203 -0.66058481 0.0010352434
-0.02487611 -0.0031654888 1.1668462 -0.16568621 -0.73957247 -0.65236545 0.0032814585
-0.014982129 -0.0044445186 1.1652498 -0.17438535 -0.73264438 -0.65789199 0.0059063337
-0.0053372206 -0.00503982 1.1631819 -0.078058429 -0.72528887 -0.68400502 0.010117403
0.0048524849 -0.0045029009 1.1658422 0.080582157 -0.73846376 -0.66946083 0.0093088206
0.015096432 -0.0045147846 1.1666473 0.024719451 -0.75102341 -0.65981269 0.013906311
0.025509546 -0.004441137 1.1646003 -0.049900912 -0.77515566 -0.62979639 0.005576415
0.035481218 -0.0044416618 1.1642499 0.0012911871 -0.78359687 -0.62126839 0.003414473
0.045207951 -0.0044406308 1.1641113 -0.04460695 -0.7750656 -0.63030434 0.0030982357
0.055047121 -0.0057230033 1.165 -0.11751661 -0.77497953 -0.62096423 0.0047000572
0.065048054 -0.0075989049 1.1632857 -0.16347104 -0.74512362 -0.64658171 0.0037762774
-0.14458808 0.0081434976 1.1663333 -0.13488662 -0.73090297 -0.66901898 0.0058747828
-0.13470213 0.0067996471 1.1664999 -0.16830419 -0.76261264 -0.62457633 0.012395474
-0.12455723 0.0063155293 1.1646003 -0.14361224 -0.7590363 -0.63501132 0.015266588
-0.11523312 0.0055346736 1.1634001 -0.08005935 -0.70506126 -0.70461273 0.013253818
-0.1051876 0.0055316258 1.1625999 -0.0067868726 -0.66039509 -0.75088757 0.0099541163
-0.095012814 0.0053230459 1.1632856 0.096923232 -0.67843461 -0.72823918 0.014428107
-0.085264392 0.0061426037 1.164091 -0.039695159 -0.681674 -0.73057842 0.022177136
-0.075438835 0.0053026122 1.1639477 -0.22969231 -0.67011434 -0.70582443 0.018943107
-0.066042013 0.0037351241 1.1630001 -0.17652366 -0.65080667 -0.73843759 0.0094386134
-0.055001795 0.0025817018 1.1627778 -0.0024498533 -0.71998245 -0.69398791 0.0066093993
-0.044570643 0.0027150733 1.162091 0.032270439 -0.74597508 -0.66519153 0.0033275536
-0.035432685 0.003319372 1.1626668 -0.013447819 -0.75073844 -0.6604628 0.0039238324
-0.025761487 0.0031597358 1.1615715 -0.10183642 -0.74119949 -0.66351545 0.0024617324
-0.016143417 0.0015480124 1.1610001 -0.17945665 -0.70559466 -0.68551552 0.0044524637
0.0066342996 0.0011057281 1.161 0.14878717 -0.70291758 -0.69553518 0.0093430923
-0.14498217 0.014385465 1.1620667 -0.15484044 -0.75865841 -0.63282055 0.0026160795
-0.1365557 0.012715725 1.161 -0.15237691 -0.75968766 -0.63218349 0.0018300629
-0.11388857 0.012162871 1.161 0.038783256 -0.64841062 -0.76030231 0.011647672
-0.10504282 0.012162871 1.161 0.0027272063 -0.63078493 -0.77595294 0.011036547
-0.095091417 0.012162871 1.161 0.058327049 -0.66969317 -0.74034393 0.015224676
-0.084771417 0.012531441 1.1610001 -0.0069773281 -0.71439385 -0.69970906 0.018233251
-0.078505687 0.012162871 1.161 -0.13509138 -0.70303613 -0.69820523 0.015399901
0.03427719 0.22888283 1.161 -0.57573241 -0.47800395 -0.66335845 0.099611647
0.029451618 0.23628096 1.1625999 -0.39112931 -0.82647341 -0.40491924 0.17386211
0.033182509 0.23559752 1.1614002 -0.57573241 -0.47800395 -0.66335845 0.099611647
0.029854277 0.24215144 1.161 -0.0047506397 -0.86691558 -0.4984324 0.10019678
0.03317146 0.24215144 1.161 -0.27434009 -0.7914443 -0.54621732 0.12156561
0.1586619 0.3694714 1.165 0.64163399 0.44001356 -0.62824661 0.016229577
0.1471886 0.37737334 1.1619999 0.41096723 0.54893726 -0.72785562 0.008869078
0.15422599 0.3754957 1.1650002 0.59380007 0.49495143 -0.63436943 0.018072335
0.12759943 0.38722119 1.1610001 0.32050505 0.57825309 -0.75026649 0.001336646
0.13544846 0.3859278 1.163 0.30574229 0.59311318 -0.74480772 0.0014726111
0.14516948 0.38482362 1.1671335 0.38981313 0.56282955 -0.72888178 0.008931404
0.15252668 0.38484222 1.169 0.51246035 0.48911318 -0.70579934 0.017845336
0.098408587 0.39916289 1.161 0.29323035 0.59633785 -0.7472598 0.0053938255
0.10587215 0.39778072 1.1610001 0.22608902 0.65714973 -0.71905351 0.00064621569
0.115442 0.39543769 1.1624546 0.29231155 0.6610797 -0.69103378 0.0014642396
0.059410483 -0.02241903 1.177 -0.33191639 -0.65723759 -0.67666113 0.0077919336
-0.051403649 -0.01361156 1.177 0.10172758 -0.7108742 -0.69592333 0.0036566185
-0.032059241 -0.010985317 1.177 -0.010487785 -0.68561417 -0.72788954 0.0087511996
-0.025141349 -0.011049371 1.177 -0.17722933 -0.69998813 -0.69181383 0.012830736
-0.015549723 -0.012318187 1.1756667 -0.184126 -0.7098971 -0.67981154 0.0080628805
-0.0046352209 -0.014225984 1.1747143 -0.0077677034 -0.72967702 -0.68374783 0.017746046
0.0047805244 -0.012920427 1.1748183 0.10878801 -0.72942418 -0.67535591 0.0097470898
0.01454989 -0.011906566 1.175182 0.058342837 -0.76441944 -0.64207399 0.01030209
0.02413268 -0.012627879 1.1747143 -0.043813959 -0.7826702 -0.62089264 0.0054099257
0.034254428 -0.014107741 1.1754003 -0.024462525 -0.784307 -0.61989045 0.0029383283
0.045073524 -0.01211038 1.1751819 -0.11220058 -0.74815375 -0.65397024 0.010412155
0.055050023 -0.015303805 1.1756667 -0.25095803 -0.69787347 -0.67081487 0.0069233566
-0.14101581 -0.0029144704 1.177 -0.025486406 -0.77093124 -0.63640827 0.010126909
-0.13550135 -0.0030404062 1.1758572 -0.12376979 -0.77620089 -0.61821783 0.015557959
-0.11078573 -0.0044780984 1.175 -0.17134541 -0.81971598 -0.54654044 0.013222422
-0.10582798 -0.0051464769 1.1746 -0.01326857 -0.76871639 -0.63945216 0.0068586594
-0.094398551 -0.0055857138 1.173 0.064650446 -0.75477004 -0.65279603 0.019411385
-0.085192382 -0.0018682423 1.177 -0.039484527 -0.7658475 -0.64180875 0.033053946
-0.0773912 -0.0053425366 1.1738889 -0.13963005 -0.7557925 -0.63975084 0.038308203
-0.052505702 -0.0078199934 1.1730001 0.090248235 -0.70905423 -0.69935501 0.0056838975
-0.044722855 -0.0078266589 1.1739999 0.070840262 -0.70790839 -0.70274276 0.0020937992
-0.033837851 -0.0069921375 1.1745 -0.011155766 -0.69035262 -0.723387 0.0066201575
-0.024577135 -0.0078199925 1.173 -0.15740466 -0.71123224 -0.68510771 0.010092995
-0.01899142 -0.0078199925 1.173 -0.16462888 -0.71182865 -0.68278641 0.0084195947
0.01228862 -0.0078199925 1.173 0.072204746 -0.74597681 -0.66204619 0.01535429
